# .PCD v0.7 - Point Cloud Data file format
VERSION 0.7
FIELDS x y z intensity
SIZE 4 4 4 4
TYPE F F F F
COUNT 1 1 1 1
WIDTH 54
HEIGHT 1
VIEWPOINT 0 0 0 1 0 0 0
POINTS 54
DATA ascii
0.38298094 1.5079924 0.08153943 254
0.38325831 1.4873056 0.080492713 254
0.43992025 1.6852628 0.030402092 255
0.38541719 1.4743646 0.079864673 254
0.45040628 1.7011148 0.030716237 255
0.39465678 1.4884546 0.080702052 254
0.46049055 1.7149823 0.030995475 255
0.39673808 1.4754956 0.08007402 254
0.45701823 1.6786342 0.030367188 255
0.39873448 1.46254 0.079445995 255
0.48149684 1.7444952 0.031588856 249
0.40490034 1.4649897 0.079655334 254
0.48704505 1.7408779 0.03155395 236
0.40975657 1.4636388 0.079655334 254
0.50417697 1.7900705 -0.032461476 11
0.50262761 1.7738844 0.032182239 236
0.42249572 1.4890993 0.081120737 254
0.51433486 1.7913398 0.032531288 216
0.42713961 1.4856958 0.081016071 245
0.51332378 1.7645719 0.032077521 100
0.43790758 1.5033717 0.082062788 245
0.53634244 1.8401071 0.16768765 18
0.49274963 1.6883562 0.2159525 8
0.51165003 1.746312 -0.031763379 10
0.5132618 1.74167 0.03169357 100
0.43410912 1.4711841 0.080388032 235
0.53821254 1.8031009 0.03284543 100
0.46154684 1.5442913 0.084470242 220
0.52077925 1.7227311 0.03141433 100
0.4651992 1.5369358 0.084156223 132
0.55673707 1.8382035 0.16803627 40
0.55781126 1.822245 0.033264287 100
0.47582915 1.5524887 0.085098274 132
0.56890512 1.835567 0.033543523 54
0.46822253 1.5088527 0.082795486 122
0.50042361 1.5929542 0.087505728 100
0.48460886 1.5057683 0.082900167 226
0.49048093 1.5059664 0.083004832 120
0.52324051 1.5877091 0.087610394 100
0.66136205 1.7595237 0.032810524 1
0.68911916 1.8131654 0.03385767 1
0.76593542 2.0057871 -0.11252232 1
0.67362887 1.7548641 0.032810524 1
0.63062632 1.6368564 0.27782765 1
0.70144421 1.8084331 0.03385767 1
0.67073232 1.7230046 0.29284537 1
0.69843274 1.7758019 0.3022314 1
0.72001725 1.8269364 -0.034276526 1
0.59191495 1.4927219 0.084156223 1
0.74434364 1.8723547 0.31912637 1
0.78306562 1.9568136 0.036789671 1
0.65959162 1.6424427 0.2803306 1
0.72917932 1.7975537 0.30723733 1
0.73994356 1.8059646 0.30911455 1
