# .PCD v0.7 - Point Cloud Data file format
VERSION 0.7
FIELDS x y z intensity
SIZE 4 4 4 4
TYPE F F F F
COUNT 1 1 1 1
WIDTH 78
HEIGHT 1
VIEWPOINT 0 0 0 1 0 0 0
POINTS 78
DATA ascii
0.32605562 1.2689826 0.068664782 249
0.39189732 1.5055947 0.027155945 255
0.34106243 1.3084232 0.070862897 254
0.40838131 1.5467532 0.02792385 255
0.35277531 1.3342572 0.072328299 254
0.42929432 1.6032677 0.028970996 255
0.36984405 1.3793166 0.074840426 254
0.43384069 1.5978997 0.028901186 255
0.37780082 1.3895808 0.075468451 255
0.47125632 1.7120553 0.030995475 246
0.39538676 1.4344646 0.077980585 254
0.48398244 1.7334285 0.03141433 246
0.41139683 1.4714758 0.08007402 254
0.49651322 1.7652214 -0.032007713 11
0.51235271 1.8106188 0.03284543 229
0.4317767 1.5238357 0.083004832 254
0.53245002 1.8568749 0.03371805 185
0.44701433 1.5568739 0.084888928 254
0.54450709 1.8742081 0.034067098 100
0.47308835 1.626261 0.088761792 235
0.56354231 1.9359438 0.17640322 21
0.49438307 1.6961509 0.21692745 8
0.57674569 1.9710394 -0.035847243 7
0.56685519 1.9260092 0.035044432 100
0.49569911 1.6820738 0.091901943 239
0.56729108 1.9029387 0.034660477 100
0.51185 1.7147821 0.093786038 221
0.59820473 1.9813498 0.036126483 100
0.5412159 1.7914639 0.098077588 100
0.61645782 2.0176036 0.03682458 100
0.54220712 1.7723746 0.097135544 100
0.65481997 2.116689 0.038674533 100
0.56552827 1.8257984 0.10017103 100
0.66937596 2.1372898 0.03909339 80
0.58863121 1.8771744 0.10310185 100
0.60484678 1.9055672 0.10477659 100
0.61149526 1.9034442 0.10477659 234
0.61286694 1.8862096 0.10393922 100
0.65437949 1.9903103 0.10980085 83
0.77455121 2.3028619 0.042409346 25
0.88701999 2.5160294 0.23340309 1
0.89178377 2.5016572 0.2323572 1
0.95577854 2.6723263 -0.1487388 1
0.91429204 2.5549214 -0.047365833 1
0.91153675 2.5346651 0.047016785 1
0.95185333 2.6409805 0.24560487 1
0.84444773 2.3416986 0.30564833 1
0.87869149 2.4339921 0.40985835 1
0.98804367 2.7324195 0.67080402 1
0.92728496 2.5629976 -0.047575258 1
0.92720985 2.5502617 0.047365833 1
0.98105705 2.6939735 0.25083423 1
0.85941637 2.3573864 0.30808574 1
0.93199098 2.5523057 0.52815932 1
0.97394764 2.6657584 -0.1487388 1
0.92798388 2.5372086 -0.047156405 1
0.98025656 2.6671338 0.049599741 1
0.88550985 2.4067473 0.13439874 1
0.87862223 2.3841746 0.31198555 1
0.97497314 2.6427791 0.44615117 1
0.99092364 2.6802511 -0.049878977 1
0.98259735 2.6449502 0.049250688 1
1.0345829 2.7804241 0.2595498 1
0.92435765 2.4815452 0.32514745 1
1.025601 2.7504134 0.46492329 1
1.035272 2.7704353 -0.05162422 1
1.0452455 2.7837825 0.05190346 1
0.93742776 2.4939842 0.13963234 1
0.9567948 2.5414684 0.33343455 2
0.99200493 2.6322117 0.44552541 1
0.97428536 2.5797317 -0.048133738 1
1.0379303 2.7352459 0.051065743 1
0.95859981 2.5195603 0.33099717 1
0.97447062 2.5585837 0.43363637 1
1.054588 2.7631404 -0.05162422 1
1.051767 2.7428091 0.051275171 1
1.0259666 2.6657803 0.45240852 8
1.0541093 2.7204752 0.050926123 6
