# .PCD v0.7 - Point Cloud Data file format
VERSION 0.7
FIELDS x y z intensity
SIZE 4 4 4 4
TYPE F F F F
COUNT 1 1 1 1
WIDTH 71
HEIGHT 1
VIEWPOINT 0 0 0 1 0 0 0
POINTS 71
DATA ascii
0.50603253 1.9939681 0.10781208 253
0.51149601 1.9863868 0.10749806 254
0.56934351 2.182621 0.039372627 255
0.51943588 1.9884541 0.10770741 255
0.57695943 2.18062 0.039372627 255
0.523305 1.9750447 0.10707937 254
0.5907861 2.2017698 0.039791487 255
0.52915901 1.9693484 0.10687003 255
0.59111905 2.1726801 0.039302818 255
0.52762961 1.9366572 0.10519528 255
0.61358571 2.2245798 0.040280156 252
0.53651404 1.9425043 0.10561397 255
0.62027097 2.2185724 0.040210344 242
0.53575271 1.9136934 0.10414857 255
0.64621389 2.2943699 -0.041606538 9
0.64273101 2.2683403 0.041152775 236
0.55878472 1.9694541 0.10728873 255
0.6567151 2.2872257 0.041536726 185
0.56531221 1.9675903 0.10728873 255
0.66429573 2.2850354 0.041536726 100
0.57887512 1.9886171 0.10854478 238
0.68297243 2.3431716 0.21353155 21
0.62251645 2.1343737 0.27298734 7
0.65575814 2.2396157 -0.040733919 7
0.66605431 2.2616017 0.041152775 100
0.5954172 2.0191512 0.1103242 235
0.68023211 2.2803421 0.041536726 100
0.6390444 2.1395383 0.11702321 226
0.70380276 2.329638 0.042479157 100
0.60602945 2.003475 0.10969618 100
0.68677551 2.2449419 0.040978249 100
0.61418957 2.0051665 0.10990552 100
0.62414175 2.0125487 0.11042888 100
0.66227305 2.1094463 0.11587181 100
0.63539839 1.975481 0.10875413 100
0.66083622 2.0302262 0.11189428 100
0.666668 2.0241137 0.11168494 100
0.77075392 2.3115814 0.21318294 10
0.83696109 2.3234754 0.043107443 1
0.73642391 2.0387969 0.26616266 2
0.82453698 2.2641711 0.042060301 1
0.84796923 2.3247225 0.21649487 1
0.75851637 2.0772364 0.27152494 2
0.83811396 2.2890174 -0.042548969 1
0.89418554 2.4303272 0.045201734 1
0.80451268 2.185426 0.12204745 1
0.79975486 2.1678293 0.28371185 1
0.883057 2.3884933 -0.13345671 1
0.84789592 2.2811453 0.042479157 1
0.75084364 2.0178797 0.11283633 1
0.75841159 2.0349581 0.26665017 2
0.85483837 2.2912445 0.38733178 1
0.85367537 2.2832594 -0.042548969 1
0.88257766 2.3493061 0.043805543 1
0.87145692 2.3160203 0.21649487 1
0.77250725 2.0508754 0.26908755 2
0.83913529 2.2254031 0.37669426 1
0.8361935 2.212924 -0.041292395 1
0.87373877 2.3013427 0.042967826 1
0.82768464 2.1743212 0.28566176 1
0.815947 2.1412416 0.362928 1
0.8439135 2.2099915 -0.041292395 1
0.77193296 2.0099065 0.11283633 1
0.80780035 2.0978243 0.35604486 1
0.87099075 2.2467103 0.042060301 1
0.86668932 2.2275398 0.37857145 1
0.91529334 2.3367543 0.043805543 1
0.91139042 2.3220158 0.21823798 1
0.86867863 2.2097931 0.3760685 1
0.90521938 2.2781899 0.38827038 8
0.92307973 2.3078644 0.043386683 1
