# .PCD v0.7 - Point Cloud Data file format
VERSION 0.7
FIELDS x y z intensity
SIZE 4 4 4 4
TYPE F F F F
COUNT 1 1 1 1
WIDTH 52
HEIGHT 1
VIEWPOINT 0 0 0 1 0 0 0
POINTS 52
DATA ascii
0.30886841 1.2012241 0.065001264 254
0.42251948 1.6420344 0.14833906 53
0.35939604 1.3797432 0.024887133 255
0.30701041 1.1769474 0.063745201 254
0.36931789 1.3978139 0.02523618 255
0.31316066 1.1835917 0.064163886 254
0.37316018 1.392653 0.02516637 255
0.31625476 1.1786333 0.06395454 255
0.3759217 1.383623 0.02502675 255
0.30968142 1.1390322 0.061861105 255
0.40067399 1.4556326 0.026353134 252
0.31451795 1.1418502 0.062070452 255
0.40335089 1.4465909 0.026213516 243
0.31420532 1.1253557 0.061233077 255
0.42667764 1.5189707 -0.027539898 20
0.41220498 1.4586443 0.026457848 239
0.33662051 1.1895934 0.064791918 254
0.42360753 1.4782695 0.026841803 226
0.34297329 1.1960907 0.065210611 254
0.42349195 1.4595722 0.026527658 216
0.34993216 1.204476 0.065733969 244
0.43409106 1.4922061 0.13596295 19
0.42348936 1.4491593 -0.026353134 19
0.43478781 1.4791888 0.026911611 135
0.35920995 1.2204911 0.066676013 238
0.45535496 1.5294091 0.02785404 100
0.36403897 1.2211436 0.066780686 226
0.43438637 1.4396652 0.02624842 100
0.3702448 1.2255371 0.067094706 144
0.46453455 1.5203742 0.027749326 100
0.38270009 1.2509757 0.068560109 125
0.3734732 1.2057519 0.066152655 132
0.38783926 1.2368388 0.067932077 122
0.39441693 1.2284654 0.067618065 235
0.39787138 1.2252512 0.067513391 126
0.55441105 1.7052909 0.15688033 47
0.40775755 1.2409319 0.068455435 104
0.49062693 1.4913734 0.13735744 81
0.50185841 1.5086435 0.13910057 16
0.49800035 1.4823451 0.027295565 30
0.41386414 1.2304827 0.06803675 25
0.56761944 1.4656874 0.027435182 1
0.59365654 1.524222 -0.028552137 2
0.61645257 1.5754296 0.029529471 1
0.54587179 1.390044 0.23652895 1
0.61900789 1.5658295 0.029389855 1
0.52280921 1.3184475 0.22463992 1
0.6153 1.541482 0.028970996 1
0.55972821 1.3972985 0.23840615 1
0.58683109 1.4502705 0.24779223 1
0.53081638 1.3020246 0.073689036 2
0.56647956 1.3860428 0.23715468 1
