# .PCD v0.7 - Point Cloud Data file format
VERSION 0.7
FIELDS x y z intensity
SIZE 4 4 4 4
TYPE F F F F
COUNT 1 1 1 1
WIDTH 66
HEIGHT 1
VIEWPOINT 0 0 0 1 0 0 0
POINTS 66
DATA ascii
0.23031095 0.89765358 0.048567772 255
0.29378036 1.1302663 0.020384412 255
0.23495252 0.90264273 0.048881788 255
0.30404297 1.1523842 0.020803269 255
0.24744251 0.93653351 0.050765883 255
0.3204681 1.1976777 0.021640982 255
0.25381196 0.94723922 0.051393915 255
0.3298834 1.2158509 0.021990033 255
0.26741847 0.98494196 0.053487353 255
0.35087457 1.2764519 0.023106987 249
0.28463545 1.0340693 0.056208819 254
0.37679836 1.3522717 0.024503179 246
0.29575831 1.0600022 0.057674225 254
0.39398509 1.4035286 -0.025445608 21
0.38749361 1.3721172 0.024887133 236
0.31576124 1.1166202 0.060814388 254
0.40768638 1.4245868 0.025864467 200
0.33176088 1.1577508 0.063117169 254
0.44161466 1.5230255 0.027679518 216
0.35195008 1.2122091 0.066152655 250
0.44468662 1.5306233 0.13944918 21
0.41586655 1.4295586 0.18280403 10
0.42716047 1.4626697 -0.026597466 40
0.43283889 1.4735087 0.026806895 128
0.37364992 1.2703724 0.069397487 233
0.45280764 1.5218217 0.027714422 100
0.38948694 1.3073428 0.071490921 225
0.50369751 1.6714892 0.0304719 100
0.3961269 1.3136928 0.071909614 167
0.48415461 1.5875627 0.028970996 100
0.41412517 1.3562366 0.074317068 132
0.51801336 1.6775755 0.030646425 100
0.42770624 1.3834047 0.075887144 122
0.4492377 1.4352732 0.078817956 106
0.48319986 1.5250877 0.08384221 125
0.47327358 1.475845 0.08122541 226
0.49321866 1.5197774 0.083737537 132
0.54214168 1.6508756 0.091064572 100
0.65813923 1.9601465 0.036091577 32
0.72138059 1.9809045 0.25885051 1
0.77887338 2.1318274 -0.039616965 1
0.81116641 2.2094429 0.041082963 1
0.77492398 2.1050496 0.27542472 1
0.74751282 2.0240481 -0.03766229 1
0.83556992 2.2515931 0.041920681 1
0.76011515 2.0427969 0.26762509 1
0.83530521 2.2388895 -0.041711252 1
0.8781296 2.3424318 0.043665919 1
0.78838855 2.1019292 0.11765125 1
0.77666378 2.0662789 0.27103746 2
0.82398039 2.1910048 0.37074974 1
0.91138542 2.406831 0.044922493 1
0.78580922 2.0730183 0.11618583 1
0.83846968 2.2084475 0.29004908 1
0.82460612 2.1696498 0.36762103 1
0.87472463 2.2966893 -0.042898018 1
0.91620851 2.3942966 0.044747971 1
0.85058826 2.2147038 0.37575564 1
0.91054714 2.3536229 0.044049874 6
0.86156029 2.2189369 0.3770071 1
0.89982945 2.3020058 0.043142349 1
0.89080226 2.2765679 0.12811844 1
0.90825635 2.3152184 0.39390203 1
0.96147847 2.4346244 0.045690399 6
0.90667397 2.2702935 0.12811844 1
0.95890635 2.3950126 0.40860689 8
