# .PCD v0.7 - Point Cloud Data file format
VERSION 0.7
FIELDS x y z intensity
SIZE 4 4 4 4
TYPE F F F F
COUNT 1 1 1 1
WIDTH 75
HEIGHT 1
VIEWPOINT 0 0 0 1 0 0 0
POINTS 75
DATA ascii
-0.9402954 0.013950501 -0.18279503 2
-0.95272934 0.014800445 -0.11699458 3
-1.014001 0.015929054 -0.088724539 18
-1.567508 0.028181888 0.027365373 26
-0.94024098 0.017232684 -0.18279503 2
-0.75419861 0.014349593 -0.092620708 12
-1.1135404 0.021380939 -0.097440116 5
-1.1022764 0.021549549 -0.057778902 127
-1.5134207 0.032494403 0.026422944 15
-0.83665562 0.018109577 0.043857537 9
-0.84146583 0.018948527 -0.10334522 8
-1.0955322 0.024861267 -0.095871314 6
-0.75672215 0.019022508 0.039670657 13
-0.82155406 0.021226147 -0.10090782 9
-1.0715383 0.028059151 -0.093779579 6
-1.1060973 0.029157283 -0.057988245 255
-0.60169381 0.016071117 -0.01050635 255
-0.87444115 0.025036344 0.045846302 24
-0.97624558 0.028633211 -0.11991944 2
-1.5511792 0.046308827 -0.081330083 134
-0.62162185 0.018775038 -0.010855397 255
-0.93138808 0.029595342 0.016265644 255
-0.91626924 0.029435078 0.048044413 6
-0.85709822 0.028133178 -0.10529512 7
-1.1569486 0.038177799 -0.10127497 80
-1.469166 0.048993584 -0.077038541 239
-0.61355823 0.020675419 -0.010715778 255
-1.1071429 0.039049078 0.019337267 123
-0.87224901 0.031069176 0.045741629 8
-0.91254079 0.033142429 -0.1121198 5
-1.089112 0.039745621 -0.095348388 15
-1.3212892 0.04868041 -0.069292814 227
-0.66943514 0.024897899 -0.011693113 255
-1.1509601 0.04461794 0.020105172 132
-0.92402434 0.036143377 0.048463102 6
-0.85688096 0.034116369 -0.10529512 7
-1.1434994 0.046127632 -0.05997701 255
-0.78922671 0.032112546 -0.013787401 255
-1.3006408 0.054967716 0.022723034 124
-1.0116924 0.043110169 0.053068664 3
-1.0154153 0.043978736 -0.12479421 1
-1.1306088 0.049165573 -0.099008918 20
-1.3468565 0.059040315 -0.070653543 251
-0.90098357 0.039810501 -0.015742071 255
-1.3583715 0.062158372 0.023735272 129
-0.92773986 0.042777397 0.048672445 6
-1.4783139 0.069973893 -0.0775619 249
-1.0626307 0.050669856 -0.01856936 238
-1.6078055 0.079197362 0.028098376 100
-1.0353044 0.051359326 0.054324731 3
-1.0468049 0.052662425 -0.12869403 1
-1.3272337 0.067002393 -0.11626577 14
-1.5219436 0.077364475 -0.079864673 126
-1.1123744 0.056934252 -0.019441981 255
-1.4577504 0.076907381 0.025480513 85
-1.2704636 0.067471579 0.066676013 2
-1.5356245 0.083435126 -0.080597378 129
-1.3875942 0.078064494 0.024258846 30
-1.2024223 0.068067677 0.063117169 2
-1.4440908 0.083012819 -0.12655014 12
-1.5313361 0.088564344 -0.080388032 130
-1.4672945 0.085374407 -0.025655037 151
-1.7585943 0.1050959 0.030751141 7
-1.2340757 0.074182287 0.064791918 2
-1.660596 0.10185727 -0.087191716 100
-1.461 0.090126373 -0.025550324 145
-1.5706203 0.099365257 0.027470089 2
-1.7818078 0.1155362 -0.093576699 100
-1.5724223 0.10251073 -0.027504994 106
-1.5343494 0.10244916 0.026841803 3
-1.2693977 0.085203283 0.066676013 2
-1.5127152 0.10286141 -0.13265103 56
-1.5241066 0.10764503 0.08007402 2
-1.3939977 0.10285792 0.024398465 1
-1.6470339 0.1247085 -0.028831376 2
