# .PCD v0.7 - Point Cloud Data file format
VERSION 0.7
FIELDS x y z intensity
SIZE 4 4 4 4
TYPE F F F F
COUNT 1 1 1 1
WIDTH 83
HEIGHT 1
VIEWPOINT 0 0 0 1 0 0 0
POINTS 83
DATA ascii
-1.3035984 0.019795688 -0.20649351 1
-1.1571723 0.017774146 0.14209966 1
-0.83165342 0.012919555 -0.10212652 9
-1.2176178 0.021891288 0.021257032 20
-1.1394517 0.021082735 0.099706165 1
-1.1293169 0.021289805 0.13868731 1
-0.92687041 0.017634895 -0.11382597 4
-1.0278836 0.019736255 -0.089944728 3
-1.1242421 0.021978978 -0.058930293 115
-1.0635929 0.022836225 0.01856936 14
-0.82267493 0.017950803 0.043124832 10
-1.2628695 0.027776368 0.11051348 1
-0.91092652 0.020512676 -0.11187606 5
-1.0158572 0.023053179 -0.08889886 6
-0.92643148 0.023450455 0.048567772 12
-0.9998548 0.025483368 0.087504365 1
-0.77987748 0.020285379 -0.095789306 11
-1.1591734 0.03035395 -0.10144928 2
-1.0541817 0.027972868 -0.055266771 254
-0.61168581 0.016444832 -0.010680873 255
-0.86844754 0.025016218 0.045532286 25
-1.1431516 0.033128928 0.10005479 1
-0.77980196 0.023007745 -0.095789306 11
-1.1838411 0.035549123 -0.062070452 243
-0.62361729 0.018944243 -0.010890301 255
-0.92338812 0.029502675 0.016126024 255
-1.006094 0.03249646 0.052754648 3
-1.2346306 0.0400941 0.10807312 1
-0.97811818 0.032276627 -0.12016319 2
-1.1609244 0.038511824 -0.10162359 83
-1.0978758 0.03680392 -0.057569556 153
-0.64353293 0.021797933 -0.01123935 255
-1.1191267 0.039667569 0.019546695 130
-0.95807081 0.03429376 0.050242521 4
-1.1986433 0.04311442 0.10493552 1
-0.91451877 0.033374086 -0.11236355 5
-1.2633996 0.046768371 -0.066257328 239
-0.66743249 0.024940221 -0.011658208 255
-1.1229777 0.043729197 0.019616505 130
-0.94996238 0.03732422 0.049823835 5
-1.0770444 0.043070097 -0.13235012 1
-1.1168301 0.044856593 -0.097788744 20
-1.2372855 0.050126862 -0.064896591 153
-0.80320728 0.032821808 -0.014031734 255
-1.5124083 0.064181864 0.026422944 100
-0.97377157 0.041664317 0.051079899 4
-0.94599503 0.041137476 -0.11626337 4
-1.2091684 0.053216107 -0.063431181 224
-0.93893349 0.041651301 -0.016405262 255
-1.2664715 0.058174264 0.022129651 114
-1.2050544 0.055774923 0.063221842 2
-0.9775722 0.045930251 -0.12016319 2
-1.1682343 0.055092376 -0.10232083 27
-1.2408955 0.058953378 -0.065105937 255
-1.0346581 0.049517013 -0.018080693 255
-1.6077917 0.079477958 0.028098376 100
-0.97740591 0.049342129 -0.12016319 2
-1.4042449 0.071627237 -0.073689036 137
-1.1503086 0.059077382 -0.020105172 255
-1.5515912 0.082130112 0.027121039 60
-1.12088 0.05952752 0.058825623 2
-1.7131026 0.093377896 -0.089913182 100
-1.2559321 0.068678267 -0.021955127 255
-1.323705 0.074470155 0.023141891 33
-1.3759061 0.077888384 0.072223626 2
-1.6410021 0.094906852 -0.086144991 100
-1.2916185 0.07515271 -0.022583414 154
-1.309464 0.078255288 0.022897556 29
-1.8001418 0.1104167 -0.094518751 100
-1.419086 0.087540776 -0.024817321 144
-1.7602123 0.11135978 0.030786045 6
-1.4991473 0.096682794 -0.13143085 50
-1.3609034 0.088721208 -0.023805084 100
-1.7316542 0.11896287 -0.030297378 35
-1.8451675 0.12967375 0.032286953 2
-1.4105457 0.099624418 0.074107721 2
-1.6534427 0.11939014 -0.02893609 14
-1.7689211 0.13052215 0.030960569 1
-1.6691225 0.12374417 0.087715074 1
-1.7726552 0.13422017 -0.031030379 3
-1.7525047 0.13546321 0.030681333 1
-1.7422742 0.13803804 -0.030506806 1
-1.6819953 0.13917165 -0.029459663 1
