# .PCD v0.7 - Point Cloud Data file format
VERSION 0.7
FIELDS x y z intensity
SIZE 4 4 4 4
TYPE F F F F
COUNT 1 1 1 1
WIDTH 65
HEIGHT 1
VIEWPOINT 0 0 0 1 0 0 0
POINTS 65
DATA ascii
-1.5080881 0.02132144 0.13195379 1
-1.149245 0.016849926 -0.14112473 1
-1.6933447 0.025122963 -0.14816476 6
-1.3815875 0.023633303 0.024119226 19
-1.4402738 0.025391495 0.12602721 1
-1.1174228 0.020284986 -0.1372249 1
-1.3884623 0.025447659 -0.12149511 4
-1.693383 0.034879617 0.029564377 11
-1.1741351 0.024389639 0.061547089 2
-1.3326114 0.028146608 0.11661438 1
-1.1490993 0.024872484 -0.14112473 1
-1.6093955 0.035678718 -0.084365569 137
-1.0742093 0.026065571 0.056313496 3
-1.3245379 0.032602049 0.11591713 1
-1.3117374 0.032745119 -0.16111128 1
-1.3357326 0.034043908 -0.070025519 255
-0.91155696 0.023551514 -0.015916595 255
-1.1439887 0.031754505 0.05997701 8
-1.6590135 0.046340168 0.14520147 2
-1.1330291 0.03224187 -0.1391748 1
-1.4414159 0.041772731 -0.075573131 221
-0.91146922 0.026733324 -0.015916595 255
-1.1672651 0.036070883 0.020384412 255
-1.4173068 0.046026431 -0.074317068 255
-0.92735928 0.030439407 -0.016195834 255
-1.4669091 0.050456483 0.025620133 126
-1.1010348 0.039026301 -0.13527498 1
-1.3559574 0.048298683 -0.11870612 90
-1.451069 0.052194007 -0.07609649 239
-0.9512279 0.0345475 -0.01661469 255
-1.3907901 0.052699417 0.024293751 134
-1.2533625 0.047930166 0.065733969 2
-1.562873 0.060039394 0.13683452 1
-1.1048591 0.043023646 -0.13576247 1
-1.4095339 0.05513417 -0.12341253 100
-1.5007706 0.059227556 -0.078713283 134
-0.97507888 0.038822372 -0.017033549 255
-1.5544324 0.064334668 0.027155945 100
-1.2252504 0.05113893 0.064268559 2
-1.3387324 0.056811605 -0.16452362 1
-1.5145227 0.065065987 -0.079445995 242
-1.2146761 0.052608937 -0.021222128 255
-1.5002608 0.067338958 0.026213516 100
-1.2729496 0.057581652 0.066780686 2
-1.37422 0.063123599 -0.16891092 1
-1.5861101 0.07368917 -0.083214179 242
-1.2863954 0.060214698 -0.0224787 255
-1.55794 0.075377993 0.027225753 100
-1.3739913 0.067920499 -0.16891092 1
-1.7593883 0.087895267 -0.092320636 100
-1.4699172 0.073948257 -0.025689943 255
-1.5816315 0.082059503 0.027644612 79
-1.6931996 0.088736884 0.14833906 1
-1.6831895 0.089390561 -0.14746751 29
-1.6573559 0.088598728 -0.086982369 100
-1.5435318 0.083054245 -0.026981421 130
-1.792979 0.099301107 0.031344522 14
-1.6928797 0.094646759 0.14833906 1
-1.6389278 0.096222281 0.028656852 4
-1.7026131 0.1032415 -0.029773805 132
-1.7062333 0.10944014 -0.029843615 100
-1.5923221 0.10464533 0.02785404 6
-1.6860054 0.11139312 0.088552445 1
-1.8135785 0.12268309 -0.031728476 21
-1.8333327 0.1269125 0.032077521 2
