# .PCD v0.7 - Point Cloud Data file format
VERSION 0.7
FIELDS x y z intensity
SIZE 4 4 4 4
TYPE F F F F
COUNT 1 1 1 1
WIDTH 121
HEIGHT 1
VIEWPOINT 0 0 0 1 0 0 0
POINTS 121
DATA ascii
-1.0384526 0.015044245 -0.20187594 1
-0.93685806 0.014063043 -0.11504468 4
-1.2112299 0.01860447 -0.10598138 13
-1.1996346 0.020939685 0.020942887 20
-0.8296293 0.015205399 -0.10188278 9
-1.079687 0.02016543 -0.094476826 6
-1.7113702 0.03554932 0.029878521 32
-0.760786 0.016068859 0.039880004 13
-1.1971546 0.025494881 0.1047612 1
-1.0081869 0.021998681 -0.12381926 1
-1.0457516 0.023000937 -0.091513529 6
-1.0123578 0.022619983 -0.053068664 144
-1.1974652 0.029056363 0.020907983 100
-0.87653124 0.021574857 0.045950972 16
-1.137305 0.028192399 0.099531859 1
-0.92475688 0.023408065 -0.11358224 4
-1.0098135 0.025737187 -0.088375926 6
-1.162017 0.030022545 -0.060919058 255
-0.61169714 0.016017815 -0.010680873 255
-1.1320044 0.031619556 0.059348982 8
-1.0694855 0.030246852 0.093605265 1
-0.93657511 0.026978681 -0.11504468 4
-1.1809913 0.034225535 -0.10336671 30
-1.2477503 0.036596421 -0.06541995 134
-0.60364538 0.017810315 -0.010541254 255
-0.90542489 0.028137656 0.015811879 255
-0.92826724 0.029172067 0.048672445 18
-1.0494596 0.033347126 0.09186215 1
-0.82934082 0.026642509 -0.10188278 9
-1.3035157 0.042558845 -0.06835077 252
-0.6155712 0.020313049 -0.010750683 255
-1.3150141 0.045461606 0.022967368 132
-0.88823891 0.031017888 0.046579007 7
-1.1568661 0.040600672 0.10127497 1
-0.85701638 0.030526593 -0.10529512 7
-1.0612574 0.038172733 -0.092908025 100
-1.3193268 0.04768556 -0.06918814 230
-0.61949319 0.022607539 -0.010820491 255
-1.1330068 0.043129586 0.019791029 131
-1.1874932 0.045618791 0.062279794 2
-1.3119992 0.050860759 0.11487127 1
-0.88864183 0.034759384 -0.10919494 6
-1.1825589 0.046669409 -0.10354102 19
-1.406953 0.056017265 -0.073793709 255
-0.68334967 0.027326576 -0.011937446 255
-1.090884 0.045530811 0.019058026 121
-0.88001865 0.036883663 0.046160318 8
-1.1963581 0.050560523 0.1047612 1
-0.92420745 0.03954364 -0.11358224 4
-1.3069794 0.056606691 -0.068560109 250
-0.92298698 0.040136948 -0.016126024 255
-1.3284496 0.059859868 0.023211701 120
-1.0075775 0.045753561 0.052859318 3
-1.2956897 0.059290085 0.11347678 1
-1.3175409 0.061211698 -0.1153942 100
-1.2469317 0.058149356 -0.06541995 251
-0.98276609 0.04617428 -0.017173167 255
-1.226368 0.059550334 0.021431556 113
-1.1390735 0.055709988 0.059767671 2
-1.2039047 0.059933867 -0.10545845 100
-1.4781128 0.074101947 -0.0775619 136
-1.1783198 0.059484821 -0.020593841 255
-1.3200113 0.068716586 0.023072081 89
-1.074406 0.057059385 -0.13210639 1
-1.2932189 0.068906397 -0.11330246 55
-1.188658 0.063751176 -0.062384464 124
-1.1641275 0.06284304 -0.020349504 140
-1.5294081 0.08497142 0.026737086 25
-1.170563 0.0654447 0.061442416 2
-1.4354115 0.082513891 -0.025096562 153
-1.4472574 0.085475773 0.025305988 10
-1.3941922 0.083074249 0.12219235 1
-1.4031788 0.085575931 -0.024538083 146
-1.690437 0.10576111 0.029564377 2
-1.3454896 0.084650859 0.070653543 2
-1.6124043 0.10398696 -0.028203089 122
-1.6840714 0.11126535 0.029459663 2
-1.6918349 0.11504117 -0.029599281 90
-1.7554883 0.12213986 0.030716237 2
-1.6375688 0.11709485 -0.028656852 18
-1.834826 0.13409725 0.032112427 1
-1.6670616 0.12505415 -0.029180422 5
-1.8001834 0.14136118 -0.031519048 1
-1.7232138 0.026468532 0.15077944 1
-1.5504837 0.024086429 -0.24560213 1
-1.5719949 0.024969056 -0.19304106 1
-1.6295644 0.02616833 -0.14258678 10
-1.5677321 0.029554777 0.13718314 1
-1.6772716 0.032790728 -0.14677027 3
-1.7473179 0.038126551 0.030506806 32
-1.4177057 0.031429142 0.074317068 2
-1.7190031 0.03840917 0.15043081 1
-1.3892014 0.031767841 -0.1706171 1
-1.3377292 0.034094796 0.070130184 4
-1.6312226 0.042145215 0.14276111 1
-1.422817 0.037506171 -0.17476064 1
-1.6591228 0.044604592 -0.086982369 251
-1.1434073 0.030939836 -0.019965554 255
-1.6509809 0.048423149 0.14450422 1
-1.351253 0.04010421 -0.16598606 1
-1.7068782 0.051553372 -0.089494489 248
-1.1752726 0.035907723 -0.020524029 255
-1.5209837 0.048861485 0.026562562 255
-1.6747072 0.054677978 0.14659595 1
-1.3749126 0.045610543 -0.16891092 1
-1.7565911 0.05919284 -0.092111297 233
-1.1791371 0.040146094 -0.020593841 255
-1.8025821 0.064207286 0.031484142 100
-1.389194 0.049968399 0.072851658 2
-1.758132 0.063545674 0.15391703 1
-1.4342579 0.05259154 -0.17622308 1
-1.2029693 0.045162082 -0.021012699 255
-1.6604772 0.064949863 0.0290059 133
-1.7578995 0.06968236 0.15391703 1
-1.6720848 0.067157954 -0.20547174 1
-1.7281964 0.070317931 -0.090645887 232
-1.3986096 0.057396159 -0.024433369 255
-1.7940986 0.076450013 0.031344522 100
-1.893002 0.081657417 0.16577022 1
-1.7778232 0.078554183 -0.09326268 250
-1.5102727 0.067260496 -0.02638804 255
