# .PCD v0.7 - Point Cloud Data file format
VERSION 0.7
FIELDS x y z intensity
SIZE 4 4 4 4
TYPE F F F F
COUNT 1 1 1 1
WIDTH 79
HEIGHT 1
VIEWPOINT 0 0 0 1 0 0 0
POINTS 79
DATA ascii
-1.3985212 0.019528253 0.12236666 1
-1.2028842 0.017006448 -0.1905372 1
-1.0380969 0.014857883 -0.12747534 1
-1.2271801 0.01799259 -0.10737588 13
-1.2696172 0.021939289 0.022164557 15
-1.3386737 0.023833703 0.11713732 1
-1.1372669 0.020843763 -0.13966228 1
-1.3326806 0.024657955 -0.11661438 2
-1.6334678 0.030794023 -0.085621633 100
-1.769349 0.036753677 0.030890759 18
-1.0503241 0.022184305 0.055057433 3
-1.1991466 0.025537305 0.10493552 1
-1.2602336 0.027498353 -0.15477408 1
-1.3923435 0.030624105 -0.12184373 4
-1.0143048 0.024788879 0.053173337 3
-1.334491 0.033080399 0.11678869 1
-1.311726 0.033203285 -0.16111128 1
-1.169153 0.02979828 -0.10232083 2
-1.333724 0.034458868 -0.069920845 255
-0.81559992 0.021214552 -0.014241164 255
-1.0022333 0.027994743 0.052545305 9
-1.4618294 0.041342996 0.12794463 2
-1.1250864 0.03221263 -0.13819985 1
-1.5172722 0.044236455 -0.079550661 144
-0.8115232 0.023943666 -0.014171354 255
-1.1132929 0.03459752 0.019441981 255
-1.0979505 0.034504592 0.057569556 9
-1.2983898 0.041030187 0.11365108 1
-1.1130627 0.035757054 -0.13673742 1
-1.5869753 0.051813599 -0.083214179 236
-0.82342637 0.027171999 -0.014380784 255
-1.4888837 0.051472489 0.026004087 131
-1.0459263 0.036524437 0.05484809 3
-1.7124007 0.060097381 0.14990787 1
-1.3747971 0.048969746 -0.16891092 1
-1.3293066 0.048046269 -0.069711499 137
-0.85929704 0.031358846 -0.015009069 255
-1.3448211 0.051192611 0.023490939 130
-1.1216323 0.043088675 0.058825623 2
-1.3458536 0.051937599 0.11783457 1
-1.3746178 0.053768422 -0.16891092 1
-1.3657254 0.05365964 -0.11957768 100
-1.3331223 0.052844375 -0.069920845 255
-0.90314054 0.036115829 -0.015776975 255
-1.4525247 0.060370516 0.0253758 123
-1.1613852 0.048676398 0.060919058 2
-1.3974204 0.058813166 0.12236666 1
-0.9777633 0.041664388 -0.12016319 2
-1.4466676 0.062404126 -0.075887144 242
-1.0828116 0.047087073 -0.01891841 255
-1.4443145 0.065080732 0.02523618 123
-1.1971219 0.054360665 0.062803157 2
-1.3742089 0.063363753 -0.16891092 1
-1.5681415 0.073128633 -0.082272127 144
-1.25842 0.059125606 -0.021990033 255
-1.3981395 0.067891262 0.024433369 100
-1.3245968 0.064783596 0.06950216 2
-1.2748467 0.063242525 -0.15672398 1
-1.4665749 0.073010348 -0.12846756 82
-1.5958033 0.080002099 -0.083737537 137
-1.3261091 0.06694562 -0.023176797 255
-1.5037345 0.078280769 0.026283324 90
-1.3443202 0.070217289 0.070548877 2
-1.373733 0.072956003 -0.16891092 1
-1.4921755 0.079507373 -0.13073361 38
-1.3977648 0.075210825 -0.024433369 149
-1.6392379 0.09078642 0.028656852 24
-1.6131071 0.092446186 -0.028203089 136
-1.6848246 0.099211559 0.029459663 8
-1.6786429 0.10208206 -0.029354947 130
-1.7064217 0.10646181 0.029843615 5
-1.4989916 0.094045721 0.078713283 2
-1.6543238 0.10524091 -0.14502715 36
-1.7002276 0.10935247 -0.029738901 122
-1.8097991 0.11925442 0.031658668 6
-1.5464835 0.10244609 0.08122541 2
-1.7016473 0.11809541 0.029773805 5
-1.8684219 0.13688041 0.098182261 1
-1.724708 0.13180071 0.030192664 1
