# .PCD v0.7 - Point Cloud Data file format
VERSION 0.7
FIELDS x y z intensity
SIZE 4 4 4 4
TYPE F F F F
COUNT 1 1 1 1
WIDTH 63
HEIGHT 1
VIEWPOINT 0 0 0 1 0 0 0
POINTS 63
DATA ascii
-10.996667 49.480103 -6.2236238 24
-10.848534 49.548012 -8.0335369 22
-10.847631 49.626789 -6.2372737 24
-10.920877 50.003822 -4.4778876 34
-10.631326 49.296768 -9.8026218 26
-10.66469 49.53537 -8.0254021 22
-10.688834 49.689659 -6.2406859 49
-10.743765 50.029949 -4.4768414 34
-10.644717 50.079399 0.89366794 6
-10.440908 49.204998 -9.7774343 26
-10.496259 49.551136 -8.0222731 44
-10.512089 49.668507 -6.2336173 73
-10.626385 50.295326 -4.4974103 100
-10.284086 49.270103 -9.7835407 26
-10.327082 49.562462 -8.0185184 44
-10.346316 49.741829 -6.2382488 100
-10.407022 50.121429 -4.4785848 100
-10.104609 49.225773 -11.601625 32
-10.105808 49.319004 -9.7858305 26
-10.161155 49.677402 -8.0310335 66
-10.228805 50.141838 -4.4771905 100
-10.208467 50.176266 -0.89377266 255
-9.8856459 49.071438 -11.556635 32
-9.9382257 49.377075 -9.79041 26
-9.9783821 49.66608 -8.0235243 66
-10.068232 50.249512 -4.4836402 100
-10.047993 50.331001 -0.89586693 255
-9.9623232 50.313377 0.89527357 255
-9.7142811 49.105652 -11.556635 32
-9.7551365 49.35754 -9.7797251 26
-9.7995892 49.673477 -8.0191441 66
-9.8854446 50.247208 -4.4803281 100
-9.8514605 50.259804 -0.89398205 255
-9.7900562 50.365513 0.89558768 255
-9.5428219 49.139259 -11.556635 32
-9.5880556 49.41827 -9.7850676 26
-9.6546659 49.854771 -8.042922 67
-9.6198645 49.768131 -6.2238679 252
-9.7084646 50.273586 -4.4796309 100
-9.6907988 50.323616 -0.89454061 255
-9.6533737 50.556797 0.89841497 255
-9.4088726 49.416721 -9.7781982 26
-9.4812012 49.843815 -8.0360394 44
-9.472558 49.893368 -6.2355676 164
-9.5403481 50.346317 -4.4831171 100
-9.5258551 50.414116 -0.89555281 255
-9.4547577 50.472256 0.8963207 255
-9.2260437 49.298855 -11.579131 32
-9.2608118 49.53257 -9.7949896 26
-9.3078671 49.880489 -8.036665 44
-9.3023481 49.947594 -6.2382488 142
-9.3748093 50.385509 -4.4838142 68
-9.3673878 50.492615 -0.8963905 255
-9.2844505 50.487595 0.89604145 254
-9.0984859 49.62252 -9.8064375 26
-9.1366978 49.880001 -8.0316591 22
-9.139864 49.995743 -6.2404418 127
-9.1964331 50.554516 -0.89691406 177
-9.1443348 50.720432 0.89960176 162
-8.963912 49.919369 -8.0329103 22
-8.9719543 50.064468 -6.2450733 36
-9.0279932 50.631588 -0.89771688 155
-8.7988453 50.105255 -6.2462916 100
