# .PCD v0.7 - Point Cloud Data file format
VERSION 0.7
FIELDS x y z intensity
SIZE 4 4 4 4
TYPE F F F F
COUNT 1 1 1 1
WIDTH 64
HEIGHT 1
VIEWPOINT 0 0 0 1 0 0 0
POINTS 64
DATA ascii
-10.940681 49.228188 -6.1919379 24
-10.742064 49.061733 -7.9546933 21
-10.753526 49.196266 -6.1831636 24
-10.852007 49.688484 -4.4496489 33
-10.520407 48.782444 -9.7003479 25
-10.586786 49.131847 -7.9603252 21
-10.589477 49.227768 -6.1826758 48
-10.660937 49.644249 -4.442328 33
-10.344735 48.751762 -9.6873732 25
-10.411932 49.153046 -7.9578223 42
-10.421668 49.283859 -6.1851134 97
-10.496238 49.679333 -4.442328 67
-10.168637 48.716999 -11.4896 32
-10.20735 48.945171 -9.7186661 25
-10.258018 49.274185 -7.9715886 43
-10.239509 49.271343 -6.1790199 9
-10.331683 49.758583 -4.4461632 100
-10.02748 48.893467 -11.522893 32
-10.008072 48.842026 -9.6911888 25
-10.078026 49.270988 -7.9653311 64
-10.139997 49.706501 -4.4383192 100
-10.1121 49.746925 -0.88609362 255
-9.8144484 48.718021 -11.473403 32
-9.8444805 48.911312 -9.6980591 25
-9.8990068 49.270996 -7.9596996 64
-9.9919033 49.868565 -4.4496489 100
-9.9509039 49.844677 -0.88721055 255
-9.9014931 49.960526 0.88902557 255
-9.685379 48.914703 -11.512095 32
-9.6797657 48.976192 -9.7041645 25
-9.7424383 49.33844 -7.9653311 64
-9.735405 49.393654 -6.1814575 255
-9.8027554 49.8269 -4.4428511 100
-9.7909575 49.904865 -0.88769919 255
-9.71031 49.955257 0.88829261 255
-9.5060434 48.949875 -11.512095 32
-9.4994574 49.007488 -9.7034016 25
-9.5600233 49.366058 -7.9640799 64
-9.550169 49.407562 -6.1787763 248
-9.6298895 49.913361 -4.4473834 100
-9.6019478 49.908997 -0.88714069 255
-9.5260382 49.984615 0.88818789 255
-9.3447809 49.080101 -11.53459 32
-9.337904 49.090485 -9.7133236 25
-9.3849297 49.431816 -7.9690852 43
-9.3808556 49.504642 -6.1865759 154
-9.4529934 49.932968 -4.4461632 100
-9.4450951 50.034569 -0.88878125 255
-9.3749542 50.094551 0.88958412 255
-9.1664762 49.122784 -9.7133236 25
-9.2165985 49.439365 -7.9653311 43
-9.2144718 49.523766 -6.1851134 139
-9.2754917 50.094761 -0.88926995 255
-9.2083235 50.172207 0.89038688 243
-9.0049295 49.160637 -9.7148495 25
-9.0304775 49.397392 -7.9534421 21
-9.0458069 49.579063 -6.1880383 92
-9.1166334 50.215374 -0.89084065 245
-9.0391645 50.237503 0.89098024 195
-8.8371773 49.262882 -9.7285881 25
-8.8688488 49.539051 -7.9709625 21
-8.8849316 49.678734 -6.196569 25
-8.9391775 50.235081 -0.8906312 150
-8.6931925 49.656212 -6.1897445 97
