# .PCD v0.7 - Point Cloud Data file format
VERSION 0.7
FIELDS x y z intensity
SIZE 4 4 4 4
TYPE F F F F
COUNT 1 1 1 1
WIDTH 67
HEIGHT 1
VIEWPOINT 0 0 0 1 0 0 0
POINTS 67
DATA ascii
-11.575881 51.787498 -6.5156231 26
-11.409201 51.762829 -8.3952131 26
-11.442489 52.00008 -6.5375595 26
-11.515497 52.419029 -4.6954284 38
-11.19085 51.541935 -10.252168 28
-11.240172 51.856392 -8.4039736 27
-11.249976 51.989265 -6.5312223 53
-11.336643 52.478382 -4.6971712 38
-11.316095 52.516476 -0.9377178 10
-11.006788 51.605644 -10.256747 28
-11.0484 51.889507 -8.4027214 54
-11.063898 52.006863 -6.5285416 79
-11.146779 52.48645 -4.6943827 76
-10.818705 51.56142 -12.163104 32
-10.809652 51.563053 -10.240719 28
-10.871237 51.947098 -8.4058504 54
-10.871192 52.037342 -6.5273223 100
-10.943945 52.431427 -4.6860156 100
-10.618991 51.503433 -12.140608 32
-10.628817 51.596622 -10.239957 27
-10.684258 51.957642 -8.4014702 54
-10.704635 52.148869 -6.5365844 19
-10.76965 52.512249 -4.6898503 100
-10.381129 51.253693 -12.073123 32
-10.452526 51.652653 -10.243772 28
-10.499733 51.979126 -8.3989677 80
-10.57845 52.510456 -4.6863642 100
-10.555627 52.586891 -0.93621689 255
-10.478091 52.628902 0.93667066 255
-10.253847 51.549553 -12.13431 32
-10.272963 51.692669 -10.244535 28
-10.321289 52.030964 -8.4014702 81
-10.401261 52.578335 -4.6891532 100
-10.375081 52.639118 -0.93649614 255
-10.29699 52.678902 0.93691498 255
-10.073854 51.585033 -12.13431 32
-10.100716 51.770603 -10.252931 28
-10.138105 52.058918 -8.400219 80
-10.149228 52.213295 -6.5309787 255
-10.222235 52.637791 -4.6912451 100
-10.192872 52.633965 -0.93579805 255
-10.13734 52.791309 0.93831122 255
-9.9078875 51.644947 -12.140608 32
-9.9066353 51.736137 -10.239193 27
-9.9617138 52.072842 -8.39709 53
-9.9808769 52.272003 -6.5341473 211
-10.048862 52.727955 -4.696126 100
-10.027388 52.765484 -0.93750834 255
-9.9600468 52.863705 0.93897438 255
-9.7444363 51.818871 -10.249115 28
-9.7951756 52.188843 -8.4102306 54
-9.8071356 52.353352 -6.5399971 149
-9.8739653 52.760986 -4.696126 100
-9.8559532 52.868973 -0.93873006 255
-9.7714462 52.876522 0.93859041 255
-9.5642433 51.856422 -10.249878 28
-9.6157904 52.238266 -8.412734 54
-9.6189346 52.357983 -6.5363407 131
-9.6663227 52.875511 -0.93824136 255
-9.5968075 52.965405 0.93956774 243
-9.3810625 51.877907 -10.247588 28
-9.4340982 52.275398 -8.4133596 27
-9.4434872 52.43227 -6.5414596 42
-9.5004005 53.013252 -0.94009131 156
-9.4118757 52.998577 0.93956774 133
-9.2542076 52.429726 -6.5370722 10
-9.3100901 53.016552 -0.93956774 75
