# .PCD v0.7 - Point Cloud Data file format
VERSION 0.7
FIELDS x y z intensity
SIZE 4 4 4 4
TYPE F F F F
COUNT 1 1 1 1
WIDTH 62
HEIGHT 1
VIEWPOINT 0 0 0 1 0 0 0
POINTS 62
DATA ascii
-10.842659 48.867668 -6.1461153 48
-10.709753 48.99601 -7.9434304 21
-10.715168 49.103043 -6.1709766 48
-10.793941 49.50539 -4.4329152 33
-10.497594 48.759239 -9.6950054 25
-10.534496 49.013786 -7.9403019 42
-10.558704 49.210018 -6.1797514 48
-10.611867 49.499905 -4.4290805 66
-10.532621 49.680031 0.88644266 10
-10.315144 48.737965 -9.6835575 25
-10.358428 49.027069 -7.9365468 42
-10.382754 49.227154 -6.1773138 97
-10.434072 49.513256 -4.4269886 99
-10.136145 48.731388 -9.6751614 25
-10.191255 49.082264 -7.9396758 42
-10.199586 49.208672 -6.1704893 9
-10.273712 49.609856 -4.4323926 99
-9.9475975 48.633327 -11.460357 32
-9.9628439 48.751083 -9.6721087 25
-10.009585 49.067223 -7.9315414 63
-10.090534 49.596607 -4.4280348 100
-10.061396 49.630707 -0.88392949 255
-9.9972267 49.715065 0.88515115 255
-9.7639894 48.598969 -11.44416 32
-9.7925978 48.785568 -9.6721087 25
-9.8491478 49.15609 -7.9403019 63
-9.9251909 49.670597 -4.4315205 100
-9.8967934 49.663792 -0.88392949 255
-9.84548 49.814648 0.88633794 255
-9.5838871 48.535492 -11.421665 32
-9.6336212 48.877243 -9.6835575 25
-9.6784391 49.149715 -7.9340444 63
-9.7398424 49.644333 -4.4261174 100
-9.7279673 49.721588 -0.88434833 255
-9.6708059 49.84478 0.88626808 255
-9.4329367 48.664307 -11.44416 32
-9.4714947 48.908916 -9.6835575 25
-9.5030527 49.163807 -7.9309154 42
-9.5088797 49.286144 -6.163177 248
-9.5973978 49.791794 -4.4364018 100
-9.5599918 49.784702 -0.88487196 255
-9.4963694 49.87627 0.88623321 255
-9.2761526 48.76585 -11.460357 32
-9.2977905 48.926247 -9.6805038 25
-9.3475895 49.282074 -7.9446816 42
-9.3482151 49.379501 -6.170733 151
-9.4131527 49.770172 -4.4315205 99
-9.3994913 49.888512 -0.88612849 255
-9.3262596 49.930737 0.88661712 255
-9.1370115 49.012451 -9.6911888 25
-9.1661215 49.263905 -7.9365468 42
-9.1747141 49.405975 -6.1700015 138
-9.2390862 49.995747 -0.88745487 255
-9.1637888 50.027897 0.88776904 243
-8.9559946 48.989964 -9.6805038 25
-9.005435 49.357788 -7.946559 21
-8.9929399 49.386925 -6.1636648 96
-9.0663052 50.037529 -0.88762939 218
-8.9950981 50.093044 0.88836241 158
-8.7911777 49.055717 -9.6873732 25
-8.8435001 49.546993 -6.1797514 20
-8.8929958 50.076744 -0.88776904 153
