# .PCD v0.7 - Point Cloud Data file format
VERSION 0.7
FIELDS x y z intensity
SIZE 4 4 4 4
TYPE F F F F
COUNT 1 1 1 1
WIDTH 63
HEIGHT 1
VIEWPOINT 0 0 0 1 0 0 0
POINTS 63
DATA ascii
-10.095214 45.611862 -7.3990383 17
-10.101004 45.713749 -5.7483339 21
-9.9359255 45.646824 -7.3990383 17
-9.9472837 45.775887 -5.7517462 42
-10.030771 46.237751 -4.1393747 28
-9.732688 45.437595 -9.0325165 22
-9.7660856 45.671345 -7.397161 35
-9.7691946 45.724911 -5.7410216 64
-9.8518429 46.190647 -4.1320539 57
-9.5597286 45.364197 -10.703171 28
-9.5643234 45.425179 -9.0233574 22
-9.6130924 45.736088 -7.4021668 35
-9.6426992 45.956631 -5.7656388 86
-9.684124 46.234245 -4.132751 85
-9.394577 45.444553 -9.0203047 22
-9.4302359 45.697495 -7.3902774 35
-9.4641924 45.902519 -5.7546706 13
-9.5190496 46.250202 -4.1311822 85
-9.2507448 45.428211 -10.703171 28
-9.2627087 45.52771 -9.0309906 22
-9.2905674 45.746254 -7.3934064 53
-9.3820181 46.320885 -4.1348424 100
-9.3360748 46.260128 -0.82375354 255
-9.2791033 46.353165 0.82514977 255
-9.080636 45.402901 -10.689673 28
-9.0945292 45.513554 -9.0218315 22
-9.1362228 45.805527 -7.3977866 53
-9.2144279 46.324043 -4.1322279 100
-9.1784163 46.312054 -0.82410264 255
-9.1176176 46.387234 0.8251847 255
-8.8958187 45.300461 -10.65818 28
-8.933321 45.533466 -9.0195417 22
-8.9785643 45.84877 -7.3996639 53
-8.9792004 45.937149 -5.7471147 227
-9.056118 46.373528 -4.1337972 100
-9.0312443 46.418392 -0.82542902 255
-8.9874935 46.58371 0.82811666 255
-8.7560663 45.426922 -10.680676 28
-8.7891636 45.641491 -9.0348063 22
-8.8281498 45.930275 -7.4077988 35
-8.8218193 45.983807 -5.7490649 213
-8.8979263 46.424423 -4.13554 100
-8.8601456 46.402496 -0.82459128 255
-8.8184948 46.581394 0.82752329 243
-8.5843935 45.388275 -10.664479 28
-8.6290722 45.66803 -9.0340433 22
-8.6684895 45.964691 -7.4084244 35
-8.6571999 45.992859 -5.7463837 134
-8.738018 46.466949 -4.1365857 85
-8.7275829 46.54562 -0.82661581 255
-8.6632338 46.606453 0.82745349 232
-8.4660187 45.67857 -9.0302277 22
-8.5153294 45.9893 -7.4077988 35
-8.5165262 46.085739 -5.754427 119
-8.5719585 46.613163 -0.82727897 253
-8.5116196 46.697399 0.82853556 216
-8.3201265 45.737297 -9.0363331 22
-8.3554382 46.022629 -7.4084244 17
-8.3570309 46.122993 -5.7554021 47
-8.4216022 46.711685 -0.82850069 153
-8.351738 46.744537 0.82884967 155
-8.1977262 46.161659 -5.7566209 10
-8.2501564 46.693535 -0.82766294 133
