# .PCD v0.7 - Point Cloud Data file format
VERSION 0.7
FIELDS x y z intensity
SIZE 4 4 4 4
TYPE F F F F
COUNT 1 1 1 1
WIDTH 86
HEIGHT 1
VIEWPOINT 0 0 0 1 0 0 0
POINTS 86
DATA ascii
-5.0720191 59.406128 -5.2162709 100
-4.859242 59.357948 -5.2105188 4
-4.6526928 58.986435 7.2651196 249
-4.6691241 59.459137 -5.2180142 4
-4.4470458 59.006279 7.2656074 249
-4.4555674 59.395603 -5.2110419 4
-4.4434438 59.512447 -3.1275971 255
-4.4181085 59.452991 -1.0406172 255
-4.3305225 59.539627 1.0420134 255
-4.3039408 59.460625 3.1243522 255
-4.2822065 59.304478 5.2019777 255
-4.2403774 59.011539 7.2643881 254
-4.2571478 59.535999 -5.2220235 7
-4.2362304 59.535564 -3.1280158 255
-4.2137003 59.511929 -1.0413851 255
-4.1229248 59.558376 1.0420831 255
-4.0812473 59.256111 3.1128385 255
-4.0773377 59.350868 5.2047663 255
-4.0400329 59.109161 7.2746253 255
-4.0466113 59.510735 -5.2185373 13
-4.0289102 59.557964 -3.1284344 255
-4.0061917 59.53027 -1.0414549 255
-3.9155676 59.580383 1.0422229 255
-3.8745224 59.271988 3.1129429 255
-3.8706992 59.372688 5.2054639 255
-3.8292961 59.055557 7.2663383 255
-3.8197525 59.551735 -3.1273878 255
-3.7986064 59.547878 -1.0415246 255
-3.7085464 59.609653 1.042502 255
-3.6683252 59.297115 3.1135712 255
-3.6639011 59.393791 5.206161 255
-3.62533 59.104225 7.2707257 255
-3.6152234 59.620525 -3.1303186 255
-3.5919385 59.580734 -1.0418737 255
-3.5065544 59.726044 1.0443171 255
-3.4585087 59.261703 3.111059 255
-3.4574945 59.422138 5.2075558 255
-3.4257307 59.593605 -5.2223721 252
-3.4070997 59.632782 -3.1303186 255
-3.3843784 59.600895 -1.0420134 255
-3.293515 59.656055 1.042886 255
-3.2553575 59.341213 3.1146176 255
-3.2511234 59.453739 5.2092986 255
-3.2124009 59.12413 7.2702379 254
-3.2188547 59.627087 -5.2242894 154
-3.2004032 59.672234 -3.131784 255
-3.177814 59.640301 -1.042502 255
-3.0868926 59.699142 1.0434445 255
-3.0494404 59.376156 3.1158738 255
-3.0441666 59.476662 5.2103443 255
-3.0053065 59.121101 7.2685318 249
-3.0059891 59.544437 -5.2160969 140
-2.9927731 59.697006 -3.1325166 255
-2.9702203 59.663013 -1.0427115 255
-2.8786902 59.713547 1.0435143 255
-2.8419816 59.382446 3.1156645 255
-2.8367381 59.490906 5.2106934 255
-2.806241 59.727715 -5.2312617 91
-2.7856882 59.735016 -3.1339822 255
-2.7620161 59.675018 -1.0427463 255
-2.670157 59.721237 1.0434794 255
-2.6358159 59.417946 3.1170251 255
-2.6305664 59.534283 5.2136564 255
-2.5992715 59.295338 7.2875438 170
-2.5949781 59.67345 -5.2256842 18
-2.5784609 59.774311 -3.1355522 255
-2.5559297 59.736244 -1.043654 255
-2.4631693 59.766159 1.0441077 255
-2.4296813 59.458714 3.1187 255
-2.4242074 59.578938 5.216794 255
-2.3923404 59.30603 7.2877874 121
-2.3710723 59.814873 -3.1372268 255
-2.347851 59.756786 -1.0438634 255
-2.2564752 59.826344 1.0450152 255
-2.2230244 59.490784 3.119956 255
-2.2138379 59.523323 5.211216 255
-2.1876602 59.377499 7.2955871 63
-2.1650624 59.900631 -3.141309 248
-2.1400459 59.786602 -1.0442473 255
-2.0476809 59.835854 1.04505 255
-2.0164151 59.530117 3.1216309 255
-2.0097909 59.6422 5.2209773 255
-1.9789758 59.343109 7.2904682 15
-1.9555498 59.895844 -3.140681 153
-1.9327431 59.837677 -1.0450152 255
-1.8395519 59.866627 1.0454689 253
