# .PCD v0.7 - Point Cloud Data file format
VERSION 0.7
FIELDS x y z intensity
SIZE 4 4 4 4
TYPE F F F F
COUNT 1 1 1 1
WIDTH 87
HEIGHT 1
VIEWPOINT 0 0 0 1 0 0 0
POINTS 87
DATA ascii
-1.4411483 16.605913 -1.4582899 18
-1.3886334 16.676365 -1.4640421 18
-1.3163108 16.324484 -3.1834574 2
-1.3050325 16.291079 2.0067008 249
-1.3183706 16.530167 -1.4507943 18
-1.2511858 16.335119 2.0115755 249
-1.272934 16.695585 -1.4649137 36
-1.2558367 16.547638 -0.86971897 255
-1.2463324 16.460369 -0.28813922 255
-1.2235812 16.504185 0.28887221 255
-1.1989863 16.249464 0.85391349 255
-1.20982 16.474539 1.4452165 255
-1.1936693 16.293646 2.0059695 254
-1.2091511 16.624416 -1.4582899 30
-1.2003812 16.543745 -0.86930031 255
-1.1900153 16.480577 -0.28841847 255
-1.1676497 16.532293 0.28929108 255
-1.1456593 16.261322 0.85433227 255
-1.1543415 16.466537 1.4441707 255
-1.1428753 16.384844 2.0166941 254
-1.1523639 16.604481 -1.4561981 49
-1.1453805 16.587685 -0.8713938 255
-1.1348108 16.476452 -0.28827888 255
-1.1112123 16.512131 0.28887221 255
-1.0896935 16.277178 0.85496026 255
-1.09791 16.48637 1.4455651 255
-1.0835311 16.313274 2.007432 255
-1.1031772 16.741604 -1.467877 100
-1.0895849 16.579433 -0.87076569 255
-1.0788591 16.504259 -0.28869772 255
-1.0513433 16.572157 0.28984958 255
-1.03078 16.293022 0.85558832 255
-1.0374808 16.490282 1.4455651 255
-1.0246073 16.376753 2.0147443 255
-1.0411859 16.735594 -1.4670054 69
-1.025666 16.57951 -0.87055635 255
-1.0146626 16.448223 -0.28765056 255
-0.99518567 16.555592 0.28950053 255
-0.9729507 16.280571 0.85475093 255
-0.98061734 16.505737 1.446611 255
-0.96958554 16.36817 2.0132816 255
-0.97278476 16.618708 -0.87244046 255
-0.96189123 16.531519 -0.28904673 255
-0.93886244 16.584917 0.28995427 255
-0.91986048 16.29966 0.85558832 254
-0.92677271 16.524811 1.4480054 255
-0.91843969 16.583145 -1.4530605 131
-0.91520327 16.62998 -0.87285918 255
-0.90837526 16.558578 -0.28946561 255
-0.88534468 16.615896 0.29044294 255
-0.86422104 16.326706 0.85684443 254
-0.87013435 16.547842 1.4497486 255
-0.8668409 16.707623 -1.4636935 127
-0.86138749 16.658854 -0.87421989 255
-0.8509832 16.569635 -0.28960523 255
-0.82654721 16.602909 0.29016373 255
-0.8084116 16.353561 0.85810035 254
-0.81584638 16.562576 1.4507943 255
-0.80822974 16.704576 -1.4631705 108
-0.80477417 16.693676 -0.87589461 254
-0.79400313 16.590483 -0.28991938 254
-0.77006203 16.637651 0.29072219 255
-0.75260091 16.384216 0.85956585 254
-0.75622052 16.589338 1.4528861 255
-0.74822497 16.477152 2.0252249 228
-0.7487492 16.681421 -1.4609046 100
-0.74483114 16.724449 -0.87735999 251
-0.74086773 16.701031 -0.29180425 244
-0.70984674 16.658344 0.29103634 246
-0.69565439 16.392731 0.85987979 245
-0.69872284 16.601831 1.4537578 253
-0.68957019 16.521435 2.0303433 129
-0.68734384 16.748899 -0.87851149 232
-0.6802752 16.64757 -0.29082692 248
-0.65538222 16.680588 0.29138538 246
-0.63983119 16.430983 0.86176395 245
-0.64246124 16.64797 1.4575926 253
-0.63195521 16.450235 2.0213251 115
-0.63383448 16.804972 -0.88133758 221
-0.6222384 16.65184 -0.29086182 238
-0.59872931 16.72674 0.2921533 241
-0.58275104 16.441099 0.86218262 235
-0.58816725 16.675892 1.4598585 247
-0.57708824 16.525745 2.0303433 84
-0.57653207 16.847006 -0.88343102 181
-0.56620294 16.715866 -0.29194385 225
-0.54117316 16.754709 0.29260704 230
