# .PCD v0.7 - Point Cloud Data file format
VERSION 0.7
FIELDS x y z intensity
SIZE 4 4 4 4
TYPE F F F F
COUNT 1 1 1 1
WIDTH 88
HEIGHT 1
VIEWPOINT 0 0 0 1 0 0 0
POINTS 88
DATA ascii
-3.8161035 44.973984 -3.9488523 100
-3.655365 44.941357 -3.9448431 77
-3.4811847 44.530701 5.4843645 249
-3.5000231 44.973705 -3.9465861 100
-3.3255842 44.540604 5.4841213 254
-3.3416736 44.96777 -3.9450176 100
-3.3251414 44.957336 -2.36255 255
-3.306565 44.919605 -0.78619599 255
-3.2314832 44.971184 0.78699881 255
-3.162231 44.115417 -10.210979 25
-3.2036924 44.693836 2.3483145 255
-3.196784 44.816505 3.9308982 255
-3.1648304 44.588131 5.4885082 254
-3.2044988 45.371235 -3.9793568 100
-3.1600721 44.965233 -2.3623405 255
-3.1486371 44.914913 -0.78591675 255
-3.0831435 44.993622 0.78720826 255
-3.0468349 44.692787 2.3476865 255
-3.0384262 44.799564 3.9284577 255
-3.0147977 44.566692 5.4846082 255
-3.0250101 45.068058 -3.9518156 13
-3.0124002 44.997391 -2.363492 255
-2.9979358 45.017418 -0.78752238 255
-2.9252772 44.992138 0.78699881 255
-2.8913558 44.711121 2.3481052 255
-2.8929138 44.857113 3.9326413 255
-2.8597512 44.584866 5.4855833 255
-2.8560579 45.019588 -2.36412 255
-2.8375349 44.975716 -0.78661489 255
-2.7694662 45.022034 0.78734785 255
-2.735743 44.728916 2.3485239 255
-2.7284949 44.867409 3.9326413 255
-2.7062545 44.630245 5.4899702 255
-2.6922352 45.049694 -2.3651667 255
-2.6813436 44.999321 -0.78685921 255
-2.6063635 45.065823 0.78794128 255
-2.5798328 44.742184 2.3487332 255
-2.5723057 44.884621 3.9333384 255
-2.5426681 44.639862 5.4899702 254
-2.548763 45.023659 -3.9453661 252
-2.533608 45.034889 -2.3639107 255
-2.5262539 45.044346 -0.78748751 255
-2.4597442 45.126133 0.78884876 255
-2.4234097 44.746925 2.3485239 255
-2.4162652 44.905262 3.9343843 255
-2.3952484 44.659943 5.4914331 254
-2.3912566 45.026314 -3.9448431 154
-2.3899627 45.150742 -2.3695629 255
-2.3690138 45.052891 -0.78748751 255
-2.2997742 45.086506 0.78801101 255
-2.2696121 44.802986 2.3510361 254
-2.2695599 44.956806 3.9382193 255
-2.240423 44.689842 5.4941139 249
-2.2431288 45.057877 -3.9469349 138
-2.2304788 45.120911 -2.3675742 254
-2.2094688 45.014946 -0.78668469 255
-2.1438854 45.126221 0.78856951 255
-2.1145334 44.838566 2.3525014 254
-2.1119509 44.950523 3.9369991 255
-2.0861793 44.735069 5.4987454 238
-2.0873878 45.099266 -3.9498982 41
-2.0753343 45.18029 -2.3702955 252
-2.0557933 45.098289 -0.78801101 255
-1.987329 45.155403 0.78895348 246
-1.9576658 44.837692 2.3520827 245
-1.9569454 45.001415 3.940834 253
-1.931989 44.787689 5.5043511 135
-1.9171777 45.177284 -2.3697724 243
-1.8991876 45.125175 -0.78836006 255
-1.8306545 45.186047 0.78937238 246
-1.8030742 44.892151 2.3545949 245
-1.8001556 45.015934 3.9415312 253
-1.7764348 44.813995 5.5067883 120
-1.762586 45.263531 -2.3739591 232
-1.7427489 45.159504 -0.78884876 255
-1.6729242 45.192162 0.78937238 246
-1.6466411 44.906151 2.3550136 245
-1.6449082 45.073708 3.9460633 241
-1.6206273 44.83778 5.5089822 52
-1.6058376 45.30534 -2.3758433 174
-1.5864441 45.203281 -0.78951198 255
-1.5227441 45.423561 0.7933166 229
-1.491854 44.971512 2.3581538 235
-1.487834 45.087143 3.9467604 241
-1.4648049 44.864986 5.5116634 100
-1.4481602 45.324642 -2.3765762 136
-1.429644 45.240524 -0.79007041 208
-1.3602036 45.296684 0.79101288 218
