# .PCD v0.7 - Point Cloud Data file format
VERSION 0.7
FIELDS x y z intensity
SIZE 4 4 4 4
TYPE F F F F
COUNT 1 1 1 1
WIDTH 85
HEIGHT 1
VIEWPOINT 0 0 0 1 0 0 0
POINTS 85
DATA ascii
-7.5121102 89.272285 -7.8379159 100
-7.2135987 89.266922 -7.8353009 5
-6.905561 88.733315 10.928025 255
-6.9203277 89.326103 -7.838439 5
-6.5959053 88.758858 10.928268 255
-6.5996799 89.230499 -7.82798 5
-6.5833726 89.434959 -4.6997695 255
-6.5538654 89.460594 -1.5657252 255
-6.4164872 89.514656 1.566493 255
-6.3672738 89.264389 4.6900349 255
-6.3474789 89.206848 7.8243194 255
-6.2852588 88.769455 10.926806 255
-6.2989249 89.406021 -7.8414016 10
-6.2720037 89.469345 -4.7003975 255
-6.2416115 89.482925 -1.5657252 255
-6.1050477 89.552475 1.5667723 255
-6.0499439 89.202377 4.6856389 255
-6.035758 89.224487 7.8239708 255
-5.9777331 88.826515 10.931194 255
-5.961493 89.5186 -4.7018628 255
-5.9297252 89.512154 -1.5658649 255
-5.7911849 89.553276 1.5664233 255
-5.7545943 89.229919 4.6860571 255
-5.7253513 89.260918 7.8253651 255
-5.6681156 88.854759 10.932168 255
-5.6472793 89.510948 -4.7003975 255
-5.6338396 89.547295 -1.5661441 255
-5.4961185 89.603928 1.5669818 255
-5.4435945 89.257439 4.6864762 255
-5.4132314 89.272408 7.8246684 255
-5.3736467 88.877037 10.932656 255
-5.3573041 89.383553 -7.8340807 166
-5.3513479 89.545135 -4.7012348 255
-5.3223882 89.586365 -1.566493 255
-5.1905584 89.748337 1.5691807 255
-5.1301794 89.243996 4.6848016 255
-5.1178226 89.301796 7.8257136 255
-5.0645647 88.915062 10.935093 255
-5.0485816 89.459404 -7.8391361 255
-5.0414128 89.61113 -4.7037468 255
-5.0105958 89.620369 -1.5667723 255
-4.873035 89.688042 1.5678196 255
-4.8209729 89.305229 4.6871042 255
-4.7945552 89.395561 7.8323379 255
-4.7548809 88.946083 10.9368 255
-4.7374139 89.49836 -7.8410535 168
-4.7139015 89.646957 -4.704689 255
-4.6990685 89.663277 -1.5672261 255
-4.545166 89.723267 1.5681336 255
-4.4952459 89.354218 4.6887789 255
-4.4808578 89.379921 7.8295493 255
-4.4269896 88.925232 10.932168 255
-4.4057474 89.441498 -7.8346038 152
-4.4024892 89.694778 -4.7063637 255
-4.3699927 89.671913 -1.5670866 255
-4.2330956 89.762558 1.5685525 255
-4.1834769 89.373352 4.6889882 255
-4.1551023 89.435539 7.8330345 255
-4.0990429 89.577744 -7.8452373 42
-4.0763593 89.768173 -4.7093992 255
-4.0585976 89.72258 -1.5677148 255
-3.9032216 89.757484 1.5682034 255
-3.8732276 89.427322 4.6910815 255
-3.8428652 89.449501 7.8330345 255
-3.7961199 89.085541 10.948256 149
-3.7621248 89.761909 -4.7083526 255
-3.7465689 89.764168 -1.5682034 255
-3.6072571 89.811905 1.5689365 255
-3.5797424 89.517509 4.6951637 255
-3.5477002 89.497581 7.8361726 255
-3.5016694 89.123428 10.951425 132
-3.4672337 89.845734 -4.7121205 255
-3.4497762 89.800079 -1.5686224 255
-3.3107841 89.861343 1.5695996 255
-3.2660265 89.495522 4.6933842 255
-3.2494969 89.471024 7.8328605 255
-3.2057245 89.124626 10.950205 59
-3.1699972 89.876701 -4.7131677 210
-3.1380153 89.861542 -1.569495 255
-2.9976654 89.890335 1.5699137 255
-2.95455 89.534325 4.6948495 255
-2.9400826 89.571434 7.8407049 255
-2.8559718 89.879227 -4.7127485 151
-2.8256388 89.911911 -1.5701929 255
-2.685339 89.950226 1.5707865 255
