# .PCD v0.7 - Point Cloud Data file format
VERSION 0.7
FIELDS x y z intensity
SIZE 4 4 4 4
TYPE F F F F
COUNT 1 1 1 1
WIDTH 86
HEIGHT 1
VIEWPOINT 0 0 0 1 0 0 0
POINTS 86
DATA ascii
-3.9174521 45.231255 -3.9720356 100
-3.7559216 45.200966 -3.9682009 78
-3.5796154 44.783779 5.5162945 249
-3.5903826 45.116486 -3.9596598 78
-3.4238617 44.803917 5.5172696 249
-3.4431388 45.263832 -3.9715128 100
-3.4238038 45.218334 -2.3765762 255
-3.4122462 45.170403 -0.79069877 255
-3.3457177 45.235531 0.79174584 255
-3.3069351 44.924633 2.3607705 255
-3.3087049 45.163986 3.9619257 255
-3.2751322 44.813042 5.5170255 254
-3.2862594 45.291477 -3.9729073 9
-3.2747092 45.241386 -2.3772039 255
-3.2551138 45.190018 -0.79083836 255
-3.1869404 45.23497 0.79153645 255
-3.1512256 44.951839 2.3616078 255
-3.1533673 45.095207 3.9549532 255
-3.1208994 44.855888 5.5209255 255
-3.1303477 45.334473 -3.9756961 14
-3.1159325 45.240593 -2.3765762 255
-3.0979078 45.209084 -0.79097795 255
-3.0284967 45.237835 0.7913968 255
-2.9940178 44.958584 2.3613987 255
-2.9880738 45.106461 3.9549532 255
-2.9624598 44.838779 5.5175133 255
-2.9540043 45.311497 -2.3797162 255
-2.9411054 45.235584 -0.7912572 255
-2.8649328 45.284557 0.79202515 255
-2.8381016 44.984703 2.362236 255
-2.8305929 45.116619 3.9549532 255
-2.7990966 44.865185 5.5194631 255
-2.7935939 45.285648 -2.3778322 255
-2.7824807 45.233604 -0.79104781 255
-2.7154531 45.305786 0.79223454 255
-2.6829476 45.026237 2.3639107 255
-2.6747479 45.154068 3.9573936 255
-2.6519501 44.901958 5.5228753 255
-2.6509099 45.287197 -3.9688981 252
-2.6450226 45.322578 -2.3792975 255
-2.626178 45.270988 -0.79153645 255
-2.5585604 45.336945 0.79261845 255
-2.5248535 45.019375 2.3630733 255
-2.5247836 45.15871 3.9570448 255
-2.4971676 44.946625 5.5272627 253
-2.4992771 45.269875 -3.9666319 151
-2.4863732 45.323563 -2.3788788 255
-2.4696486 45.307835 -0.79202515 255
-2.4017572 45.373562 0.79310721 255
-2.3689592 45.051849 2.3643293 254
-2.3679571 45.183167 3.9584396 255
-2.3411257 45.276337 -3.9664578 147
-2.3297977 45.363876 -2.3805537 255
-2.3129153 45.344139 -0.79251379 255
-2.2427764 45.369682 0.79289776 255
-2.21226 45.071815 2.3649576 254
-2.2117906 45.222996 3.9612284 255
-2.1837051 44.97089 5.5282378 242
-2.1848996 45.322041 -3.9697695 135
-2.1734486 45.413628 -2.3827517 253
-2.1549883 45.359924 -0.79265344 255
-2.0854819 45.401203 0.7933166 255
-2.0558355 45.099213 2.3660042 254
-2.0546305 45.246365 3.9626231 255
-2.0316763 45.440861 -3.9795313 33
-2.0164046 45.454857 -2.384531 243
-1.9976162 45.389145 -0.79303735 255
-1.92791 45.430187 0.79370052 252
-1.899981 45.144032 2.3679929 245
-1.898085 45.287106 3.9655864 253
-1.8733227 45.072308 5.5389619 130
-1.858692 45.485569 -2.3857872 232
-1.8402874 45.423817 -0.79352605 255
-1.7707275 45.472607 0.79432887 246
-1.742859 45.162357 2.3686211 245
-1.7409192 45.317341 3.9676781 252
-1.7115341 44.96154 5.5245814 113
-1.7010347 45.521717 -2.3873572 224
-1.6822449 45.443951 -0.79377037 255
-1.6125423 45.494499 0.79460806 245
-1.585562 45.178146 2.3691442 238
-1.5836829 45.351021 3.9701183 241
-1.5601437 45.127937 5.5443244 43
-1.544343 45.59325 -2.3908114 163
-1.5254241 45.503506 -0.79471278 253
-1.4546523 45.527832 0.79509676 226
