# .PCD v0.7 - Point Cloud Data file format
VERSION 0.7
FIELDS x y z intensity
SIZE 4 4 4 4
TYPE F F F F
COUNT 1 1 1 1
WIDTH 52
HEIGHT 1
VIEWPOINT 0 0 0 1 0 0 0
POINTS 52
DATA ascii
-1.4997803 0.020942185 -0.29155618 1
-1.5678538 0.02216641 0.13718314 1
-1.2584132 0.018450521 -0.15453033 1
-1.4901433 0.022108207 -0.13038498 4
-1.3875898 0.023493743 0.024223939 22
-1.0663773 0.018427253 0.055894807 3
-1.344654 0.023705753 0.11766025 1
-1.2464365 0.022409413 -0.1530679 1
-1.342645 0.024607923 -0.11748594 2
-1.1302049 0.023477104 0.059244309 2
-1.5676666 0.032837961 0.13718314 1
-1.190781 0.02556706 -0.14624323 1
-1.3345884 0.02888743 -0.11678869 4
-1.3478239 0.029644912 -0.070653543 137
-1.4033849 0.033562522 0.024503179 100
-1.0941759 0.026550062 0.057360213 3
-1.3683631 0.033441808 0.11975199 1
-1.1430571 0.028534325 -0.1403935 1
-1.359692 0.034654561 -0.071281582 255
-0.86757833 0.022415256 -0.015148689 255
-1.209873 0.033583298 0.063431181 8
-1.3722211 0.038329378 0.12010061 3
-1.3974947 0.040499877 -0.073270351 244
-0.8834855 0.025912562 -0.015427927 255
-1.1532738 0.035638526 0.020140078 255
-1.3880101 0.043620117 0.12149511 1
-1.371394 0.044535432 -0.071909614 255
-0.89538133 0.029389773 -0.015637357 255
-1.3070279 0.044957139 0.022827748 126
-1.6107465 0.057937499 -0.084470242 140
-0.91525716 0.033241086 -0.015986405 255
-1.4207639 0.053835176 0.024817321 138
-1.6045473 0.063323081 -0.084156223 243
-0.94710535 0.037708614 -0.016544882 255
-1.470517 0.060861595 0.025689943 121
-1.4666326 0.063008562 -0.076933861 254
-1.1827198 0.051018354 -0.020663649 255
-1.4123738 0.063147515 0.024677703 120
-1.6180451 0.074889839 -0.084888928 249
-1.3343465 0.062225852 -0.023316415 255
-1.5399768 0.074239485 0.026911611 100
-1.5601285 0.077121817 -0.1366602 60
-1.7494297 0.087091684 -0.091797277 100
-1.3820536 0.069286235 -0.02415413 255
-1.5556846 0.0804407 0.027190849 79
-1.665349 0.08873456 -0.087401055 100
-1.4816446 0.079464898 -0.025899371 255
-1.7608597 0.10060506 -0.030786045 181
-1.7467258 0.10255115 0.030541712 8
-1.6626925 0.10082084 -0.02907571 130
-1.7882696 0.11125492 0.031274714 3
-1.5604138 0.10227485 0.027295565 1
