# .PCD v0.7 - Point Cloud Data file format
VERSION 0.7
FIELDS x y z intensity
SIZE 4 4 4 4
TYPE F F F F
COUNT 1 1 1 1
WIDTH 59
HEIGHT 1
VIEWPOINT 0 0 0 1 0 0 0
POINTS 59
DATA ascii
-1.1877034 0.016584499 0.020733459 52
-1.468237 0.021270607 0.12846756 1
-0.95273697 0.014301399 -0.11699458 3
-1.0757663 0.01633596 -0.094128199 3
-1.0736729 0.018741017 0.018743884 24
-0.81076121 0.01429342 0.0424968 10
-1.0936451 0.01966241 0.095697001 1
-1.1952254 0.022323353 -0.10458689 2
-1.0296211 0.021387734 0.01797598 14
-0.96246773 0.020160843 0.050451867 4
-1.0218641 0.021761853 0.089421786 1
-1.1035169 0.024271466 -0.096568562 9
-1.3318396 0.02975844 -0.069816172 134
-0.54309231 0.013272786 0.028470764 21
-1.4320943 0.035249438 0.12532996 1
-1.2050097 0.030502014 -0.10545845 8
-1.1460494 0.029409852 -0.060081679 163
-0.63169008 0.016430879 -0.011029921 255
-1.1531382 0.032411557 0.10092635 2
-1.1272249 0.032470476 -0.098660305 34
-1.1479362 0.033468373 -0.060186356 144
-0.62763125 0.018518008 -0.010960111 255
-1.3095043 0.042754367 -0.068664782 243
-0.64355171 0.021236369 -0.01123935 255
-1.0831879 0.037447099 0.01891841 126
-1.3499755 0.048321832 -0.11818319 100
-1.0917879 0.039461426 -0.057255544 153
-0.65946054 0.024066091 -0.011518588 255
-1.0870471 0.041380063 0.018988218 130
-1.1814495 0.046832137 -0.061965775 255
-0.6993345 0.027965797 -0.012216684 255
-1.2287519 0.051069964 0.02146646 121
-1.2970026 0.05617458 -0.06803675 240
-0.97892559 0.042569492 -0.017103357 255
-1.340425 0.06063389 0.023421129 113
-1.7277347 0.080873281 -0.090645887 241
-0.96278322 0.045403577 -0.016824121 255
-1.2163711 0.059277389 0.021257032 100
-1.3451778 0.067202196 -0.11783457 95
-1.2945842 0.065127648 -0.067932077 136
-1.1383668 0.057667058 -0.019895744 255
-1.723388 0.090016976 0.030122854 33
-1.4901719 0.079661429 -0.1305593 42
-1.551623 0.083489619 -0.081434757 134
-1.2300216 0.0664002 -0.021501366 255
-1.519425 0.084416784 0.026562562 13
-1.4560691 0.08293654 -0.12759601 14
-1.6011878 0.091482356 -0.084051557 100
-1.3815086 0.079415314 -0.02415413 178
-1.4692159 0.08677265 0.025689943 6
-1.4160104 0.085366689 -0.12410977 24
-1.4870262 0.090429418 -0.026004087 145
-1.5188153 0.094757244 0.026562562 3
-1.3370334 0.085993133 -0.023386225 94
-1.5843509 0.10662102 -0.13892625 63
-1.77964 0.12069928 -0.031135093 27
-1.6178616 0.11228062 0.028307803 2
-1.6336 0.11652489 -0.028587043 10
-1.7131691 0.12520602 0.029983234 1
