# .PCD v0.7 - Point Cloud Data file format
VERSION 0.7
FIELDS x y z intensity
SIZE 4 4 4 4
TYPE F F F F
COUNT 1 1 1 1
WIDTH 52
HEIGHT 1
VIEWPOINT 0 0 0 1 0 0 0
POINTS 52
DATA ascii
-1.0197403 0.014595152 0.017801456 8
-0.994093 0.014748657 0.086981431 1
-0.93631017 0.014545376 -0.081926398 5
-1.0016888 0.017834034 0.017487312 4
-0.70092243 0.012724101 0.036739845 15
-1.1693363 0.02143153 0.10232083 1
-1.0836638 0.020618089 -0.094825447 3
-1.4117972 0.027354544 -0.074003048 125
-0.74080962 0.01603497 0.038833283 13
-0.94217592 0.020558318 0.082449332 3
-0.85651034 0.019287307 -0.074953936 18
-0.67685705 0.017014856 0.035483781 32
-0.938115 0.023746196 0.082100704 3
-0.96399045 0.025074339 -0.084366761 9
-0.97831708 0.025788931 -0.051289242 255
-1.0376046 0.0298889 0.090816282 1
-1.1172444 0.03296385 -0.097788744 31
-0.91234094 0.027236979 -0.047835067 147
-0.77549469 0.024506271 0.013543067 255
-1.1011983 0.036145456 -0.096394248 87
-1.0060651 0.033374615 -0.052754648 240
-1.0951656 0.038243908 0.019127838 123
-1.0094759 0.036663003 -0.088375926 12
-0.92810768 0.033869993 -0.048672445 138
-0.50158328 0.018479889 -0.0087611079 255
-0.92917305 0.03569515 0.016230738 130
-0.92373687 0.036778212 -0.08088053 6
-1.0676728 0.042882226 -0.05599948 254
-0.62139994 0.025066657 -0.010855397 255
-0.94501936 0.039772987 0.016509976 117
-1.2431082 0.054275367 -0.065210611 134
-0.77313375 0.034026001 -0.013508162 255
-1.3583823 0.061921306 0.023735272 118
-1.1212136 0.052874941 -0.058825623 229
-0.94878525 0.045075588 -0.016579786 255
-1.2942445 0.063525535 0.022618318 107
-0.91932136 0.04624901 -0.080531903 40
-1.2825929 0.06497322 -0.067304045 136
-0.9566105 0.04879446 -0.016719406 255
-1.1821865 0.06216269 0.020663649 100
-1.2165451 0.065885641 -0.063849874 132
-1.1401337 0.062146477 -0.01993065 255
-1.3077455 0.073343031 0.022862652 31
-1.4755208 0.085077934 -0.077457219 124
-1.2996169 0.075390525 -0.022723034 153
-1.2296315 0.073268741 0.021501366 8
-1.345252 0.082750112 -0.023525843 144
-1.5387059 0.09707696 0.026911611 3
-1.455422 0.093607463 -0.12759601 55
-1.3928466 0.090559572 -0.024363559 120
-1.1831987 0.078795269 0.020698555 1
-1.3625968 0.093370408 -0.023839988 77
