# .PCD v0.7 - Point Cloud Data file format
VERSION 0.7
FIELDS x y z intensity
SIZE 4 4 4 4
TYPE F F F F
COUNT 1 1 1 1
WIDTH 53
HEIGHT 1
VIEWPOINT 0 0 0 1 0 0 0
POINTS 53
DATA ascii
-1.1674179 0.016912587 0.10214653 1
-0.87532938 0.012986645 -0.10748877 7
-1.1474841 0.017425025 -0.10040341 5
-1.0736762 0.01855338 0.018743884 14
-0.74885577 0.013202051 0.039251972 13
-1.131498 0.020145154 0.099008918 1
-1.1235118 0.020983951 -0.09831167 5
-0.8845852 0.018838331 0.046369661 7
-1.1154809 0.023950307 0.097614422 1
-0.93220568 0.020829076 -0.08157777 11
-1.1401415 0.0258736 -0.059767671 250
-0.85256773 0.02113411 0.044694912 18
-1.1671716 0.029340401 0.10214653 1
-1.1779791 0.030846395 -0.061756436 255
-0.58970535 0.01554493 -0.01029692 255
-1.0900291 0.032160871 -0.057150867 245
-0.59764272 0.017841997 -0.01043654 255
-0.88342923 0.027762972 0.015427927 255
-1.1038835 0.036426719 -0.057883576 221
-0.60956824 0.020327814 -0.010645968 255
-1.1131519 0.038872 0.019441981 126
-1.5268868 0.0557216 -0.08007402 138
-0.62548035 0.023044646 -0.010925207 255
-1.2908511 0.049589392 0.02254851 132
-1.327881 0.052636616 -0.11626577 19
-1.2093724 0.048361782 -0.063431181 255
-0.68134201 0.027484659 -0.011902542 255
-1.1188471 0.04689353 0.019546695 120
-1.1405786 0.049200527 -0.099880479 8
-1.1812609 0.051368233 -0.061965775 190
-0.88901079 0.038970359 -0.015532642 255
-1.1546341 0.052431319 0.020174982 113
-1.3446693 0.063177943 -0.070548877 242
-1.0526609 0.049826216 -0.018394835 255
-1.2263471 0.059978385 0.021431556 100
-1.5698439 0.079250023 -0.082376808 135
-1.0884287 0.055327754 -0.019023122 255
-1.3679142 0.07168939 0.023909798 63
-1.2156029 0.065196313 -0.10650431 49
-1.4020318 0.075685814 -0.073584363 133
-1.3458098 0.073121913 -0.023525843 154
-1.4834571 0.082938209 0.025934275 13
-1.2929447 0.073871173 -0.11330246 17
-1.6430292 0.094448686 -0.086249664 100
-1.3555281 0.078396551 -0.023700368 172
-1.5510285 0.092147835 0.027121039 7
-1.4438229 0.087549217 -0.12655014 23
-1.5289097 0.093512096 -0.026737086 129
-1.5227736 0.095537797 0.026632372 3
-1.552865 0.099602893 -0.13613726 43
-1.4585805 0.096622996 0.025515417 1
-1.5581641 0.10595184 -0.027260659 67
-1.7492666 0.12508184 -0.030611521 13
