# .PCD v0.7 - Point Cloud Data file format
VERSION 0.7
FIELDS x y z intensity
SIZE 4 4 4 4
TYPE F F F F
COUNT 1 1 1 1
WIDTH 519
HEIGHT 1
VIEWPOINT 0 0 0 1 0 0 0
POINTS 519
DATA ascii
1.4751543 0.13944294 -0.39702842 5
1.546304 0.14562403 -0.35857198 3
1.4288403 0.13431023 -0.27896276 3
1.5281814 0.14311016 -0.24309918 5
1.4388753 0.13449356 -0.17744178 33
1.5602589 0.1422701 -0.41980451 3
1.5642452 0.14208232 -0.3626211 3
1.123825 0.10207841 0.059139632 255
1.4077703 0.12762181 -0.27476496 4
1.4912674 0.13466649 -0.23715468 8
1.2593992 0.11350641 0.15526156 255
1.5434022 0.13557349 -0.41514575 2
1.5685904 0.13723357 -0.36352089 3
1.1281538 0.098502606 0.059348982 255
1.4414345 0.1258561 -0.28125247 3
1.3774986 0.12003143 0.12097216 255
1.5133533 0.1316026 -0.24059623 5
1.2716346 0.11035952 0.15672398 255
1.3705382 0.11870194 -0.16891092 126
1.4760294 0.12757826 0.23465173 246
1.6195607 0.13970019 0.31597972 213
1.3647853 0.11700326 -0.023909798 255
1.5669893 0.1318592 -0.42135742 3
1.3410555 0.1128473 0.023490939 255
1.565176 0.13143228 -0.3626211 3
1.1125685 0.093229473 0.058511604 255
1.4849275 0.12417093 -0.28964809 3
1.3977842 0.11663895 0.12271529 255
1.4980772 0.12474397 -0.23809329 5
1.2680557 0.10559022 0.15623651 255
1.3392919 0.11128668 -0.16501111 136
1.4685912 0.12177326 0.23340026 246
1.4991312 0.12404143 -0.13160518 244
1.6004959 0.13214736 0.31216353 207
1.5008478 0.12365676 -0.078922629 255
1.3651855 0.11223884 -0.023909798 255
1.6001751 0.12902847 -0.43015727 3
1.3574061 0.10921462 0.023770178 255
1.5442798 0.12397818 -0.35767215 3
1.1288298 0.090427198 0.059348982 255
1.4021549 0.11207619 0.12306391 255
1.4236767 0.11354572 -0.22620426 5
1.2882224 0.10251689 0.1586739 254
1.3733314 0.10904869 -0.16915466 203
1.4453973 0.1145165 0.22964582 250
1.4916104 0.11817789 -0.13090792 244
1.6107332 0.1273337 0.31407163 234
1.5012703 0.11841667 -0.078922629 255
1.3655876 0.10723473 -0.023909798 255
1.5601671 0.12032215 -0.41928688 3
1.3537915 0.10416853 0.023700368 255
1.5447031 0.11858793 -0.35767215 3
1.1251557 0.086180925 0.059139632 255
1.4113724 0.1081036 -0.27514657 3
1.4224036 0.10869883 0.12480702 255
1.4949721 0.11398275 -0.23746756 5
1.2569025 0.095610119 0.15477408 255
1.7022842 0.12919062 -0.20961528 100
1.4576064 0.11036627 0.23152302 246
1.4920138 0.11297151 -0.13090792 234
1.6268291 0.12289307 0.31712458 235
1.4937081 0.11257475 -0.078503944 255
1.3619654 0.10216775 -0.023839988 255
1.5759906 0.11601033 -0.42342797 3
1.3541468 0.099442564 0.023700368 255
1.5839783 0.11604244 -0.36667022 4
1.1134838 0.081573956 0.058511604 255
1.4587339 0.10661108 -0.28430542 4
1.4068774 0.10257433 0.12341253 255
1.4795995 0.10761684 -0.23496459 5
1.2770276 0.092658363 0.15721147 255
1.3502833 0.097973645 -0.1662298 180
1.461905 0.1058169 0.23214878 246
1.5082967 0.10891026 -0.13230242 244
1.5724193 0.11326377 0.30643925 246
1.5140133 0.10879184 -0.079550661 254
1.5608141 0.11215478 0.36127138 62
1.3662859 0.097936973 -0.023909798 255
1.5145683 0.10829963 0.40686354 57
1.5590228 0.10956493 -0.41876921 4
1.3345212 0.093553379 0.023351319 255
1.5746346 0.11010903 -0.36442071 4
1.1257025 0.07871668 0.059139632 255
1.4238266 0.099314503 -0.27743632 4
1.4231105 0.099014975 0.12480702 255
1.5095078 0.10476077 -0.23965763 5
1.2892097 0.089246482 0.1586739 254
1.3605025 0.094181776 -0.16744849 186
1.4661891 0.10124091 0.23277451 246
1.5046743 0.10363375 -0.13195379 244
1.5806206 0.10858812 0.30796573 246
1.5024101 0.10295164 -0.078922629 255
1.5378472 0.10537994 0.35587254 46
1.3546327 0.092587128 -0.023700368 255
1.478299 0.10078032 0.39702842 46
1.5998559 0.10710385 -0.42963964 3
1.3707387 0.091525093 0.023979606 255
1.5613799 0.10398062 -0.36127138 4
1.1977136 0.079552196 0.062907822 255
1.4398196 0.095632873 -0.28048924 4
1.4115028 0.093504652 0.12376115 255
1.4960494 0.09884318 -0.23746756 5
1.2894986 0.084970459 0.1586739 254
1.3370531 0.087869667 -0.16452362 186
1.4665337 0.096121937 0.23277451 246
1.5050268 0.098381139 -0.13195379 242
1.5848904 0.10360168 0.30872896 246
1.5107154 0.098488212 -0.079341315 255
1.3749027 0.089152247 -0.024049416 255
1.5154057 0.095872067 -0.40686354 3
1.3830239 0.087496944 0.024189034 255
1.5714577 0.099143595 -0.36352089 3
1.1381845 0.071608879 0.059767671 255
1.4558356 0.091338113 -0.28354219 4
1.423767 0.089077383 0.12480702 255
1.4845722 0.092621535 -0.23559032 5
1.3135624 0.081952333 0.16159877 254
1.3333892 0.08295507 -0.16403615 137
1.4629171 0.090757877 0.23214878 246
1.5212698 0.094110779 -0.13334829 244
1.5813403 0.097549908 0.30796573 246
1.5110662 0.092950836 -0.079341315 254
1.3791975 0.084596872 -0.024119226 255
1.5909393 0.095076583 -0.42705145 4
1.39132 0.0829034 0.024328655 255
1.15039 0.06834583 0.060395699 255
1.4443866 0.085559502 -0.28125247 4
1.436003 0.084811397 0.1258529 255
1.5006623 0.08836741 -0.23809329 5
1.2900736 0.075740844 0.1586739 254
1.3237758 0.077487692 -0.16281746 135
1.4592808 0.085419536 0.23152302 246
1.481809 0.086478733 -0.12986206 234
1.6130301 0.09385436 0.31407163 237
1.523345 0.088369265 -0.079969354 252
1.3874699 0.080244198 -0.024258846 255
1.5391837 0.086593084 -0.41307521 3
1.4035665 0.078963377 0.024538083 255
1.1585982 0.064776011 0.060814388 255
1.4243542 0.07913544 0.12480702 255
1.2942818 0.0716822 0.15916139 254
1.3497925 0.074519657 -0.16598606 138
1.4792942 0.081410266 0.23465173 246
1.5358155 0.084252693 -0.13456847 237
1.5937295 0.087429777 0.31025544 246
1.5076754 0.082444333 -0.079131976 253
1.3697708 0.074424408 -0.023944702 255
1.5104264 0.081801616 0.40531066 37
1.5819038 0.083734609 -0.42446327 3
1.391852 0.073431708 0.024328655 255
1.1508391 0.06031293 0.060395699 255
1.4445056 0.07545124 0.12655014 255
1.3222781 0.068603486 0.16257372 254
1.3639214 0.070526026 -0.16769223 136
1.4914058 0.076856337 0.23652895 246
1.530131 0.078584202 -0.13404553 244
1.6097105 0.082671233 0.31330839 246
1.5119432 0.07738629 -0.079341315 254
1.382005 0.070251308 -0.02415413 255
1.4624683 0.074085608 0.39236969 35
1.586059 0.078126505 -0.42549852 3
1.4040835 0.069162712 0.024538083 255
1.1630119 0.056881022 0.061023727 255
1.4527327 0.070541821 0.12724738 255
1.2987163 0.062836528 0.15964885 252
1.3463142 0.064903975 -0.16549858 137
1.4798266 0.071080856 0.23465173 240
1.5224354 0.072861925 -0.13334829 238
1.6413789 0.078267299 0.31941426 237
1.5321667 0.072790906 -0.080388032 252
1.3882341 0.065710723 -0.024258846 255
1.5631641 0.071529545 -0.41928688 3
1.4123181 0.064380586 0.024677703 255
1.6177361 0.073460884 -0.37386864 7
1.1672031 0.0527982 0.061233077 255
1.4529699 0.065471411 0.12724738 255
1.3068703 0.058430407 0.1606238 252
1.3386104 0.059616067 -0.16452362 134
1.4623162 0.064868994 0.23183592 236
1.5147305 0.066929236 -0.13265103 238
1.6298741 0.072016925 0.31712458 238
1.5364022 0.067618892 -0.080597378 248
1.5691777 0.068786249 0.3626211 43
1.4024501 0.061232369 -0.024503179 255
1.5865775 0.066774935 -0.42549852 3
1.4105363 0.059365816 0.024642797 255
1.5829362 0.066344172 -0.3657704 3
1.1713712 0.048890401 0.061442416 255
1.4452375 0.059814949 0.12655014 255
1.3328507 0.054931153 0.16379242 249
1.3626115 0.055919483 -0.16744849 134
1.4783233 0.060408987 0.23433885 236
1.506992 0.061317749 -0.13195379 234
1.6183573 0.065566175 0.31483486 234
1.5266616 0.061583608 -0.08007402 243
1.3966612 0.056096077 -0.024398465 255
1.4347038 0.055617131 0.025061656 255
1.1755185 0.045159303 0.061651766 255
1.4593549 0.055807542 0.12777032 255
1.3409601 0.050811887 0.16476737 249
1.34692 0.050801672 -0.16549858 133
1.5298393 0.057433452 0.24247345 236
1.5430249 0.057659537 -0.13509139 231
1.6264029 0.060775191 0.31636134 246
1.534831 0.057084385 -0.080492713 243
1.4068311 0.051832683 -0.024572989 255
1.4268954 0.050327782 0.024922037 255
1.1916373 0.041613013 0.062489137 254
1.4575584 0.050389849 0.12759601 255
1.3411294 0.046130396 0.16476737 249
1.3470892 0.046100017 -0.16549858 132
1.5023912 0.051152248 0.23809329 236
1.5412257 0.05220516 -0.1349171 233
1.5599018 0.052565224 0.3033863 246
1.53503 0.051458903 -0.080492713 243
1.6165558 0.053909454 0.37341875 55
1.4070035 0.046921235 -0.024572989 255
1.4270703 0.045096565 0.024922037 255
1.16782 0.036700591 0.061233077 255
1.4198884 0.044125468 0.12428409 253
1.5143911 0.046798475 -0.23997049 15
1.349226 0.041458771 0.16574231 249
1.3194706 0.04031333 -0.16208623 132
1.4867649 0.045424614 0.23559032 236
1.5453814 0.046946287 -0.13526571 232
1.6110972 0.048661198 0.31330839 242
1.5391929 0.046219818 -0.080702052 243
1.6069947 0.047975868 0.37116924 100
1.4071587 0.042009883 -0.024572989 255
1.4352076 0.040590398 0.025061656 255
1.1958917 0.033404339 0.062698483 254
1.4424363 0.040039033 -0.28048924 11
1.4638494 0.040377747 0.12811893 255
1.4267455 0.039105114 0.17524813 252
1.335472 0.036370188 -0.16403615 132
1.4908638 0.040341742 0.23621608 236
1.5554941 0.041818924 -0.13613726 228
1.6151747 0.043423418 0.31407163 237
1.5393378 0.041115724 -0.080702052 243
1.5448072 0.040992022 0.35677236 100
1.4152927 0.03730813 -0.024712607 255
1.4313424 0.035481527 0.024991846 255
1.2039877 0.029424565 0.063117169 254
1.4819016 0.035958502 0.12968774 255
1.3792449 0.032985169 0.16939841 238
1.3514673 0.032085504 -0.16598606 130
1.4949452 0.035230804 0.23684181 236
1.5416814 0.03633222 -0.1349171 207
1.6251302 0.03801427 0.31597972 164
1.5514522 0.036020659 -0.081330083 243
1.5410445 0.035509925 0.35587254 100
1.4114161 0.032275803 -0.024642797 255
1.4554484 0.030995529 0.025410704 255
1.2120703 0.025389247 0.063535862 254
1.4959619 0.031074729 0.13090792 255
1.3475968 0.027522257 0.16549858 238
1.3396628 0.027126323 -0.16452362 132
1.506909 0.030249732 0.23871902 231
1.535823 0.030830152 -0.13439415 209
1.6016985 0.031872895 0.31140029 228
1.5635498 0.030840775 -0.081958115 243
1.5294689 0.029901505 0.35317314 100
1.4115201 0.027349142 -0.024642797 255
1.4475501 0.025772791 0.025271084 255
1.2081577 0.021088716 0.063326515 254
1.4960613 0.025852976 0.13090792 241
1.3794416 0.023356078 0.16939841 238
1.3397492 0.022450143 -0.16452362 129
1.5089805 0.025022522 0.2390319 226
1.5458817 0.025634434 -0.13526571 137
1.6155409 0.026507525 0.31407163 237
1.5796238 0.025642451 -0.082795486 243
1.5354093 0.024656674 0.35452285 232
1.4196048 0.022549188 -0.024782417 255
1.4696256 0.021034153 0.025655037 254
1.2301917 0.017178342 0.064477906 244
1.5061033 0.020767542 0.13177948 228
1.3914241 0.018701142 0.17086083 238
1.3596686 0.018036358 -0.16696103 127
1.5209099 0.019909786 0.2409091 226
1.537993 0.020133413 -0.13456847 137
1.6686271 0.021553041 0.3243753 228
1.5876921 0.020229744 -0.083214179 239
1.5744578 0.019786295 0.36352089 232
1.4476684 0.017940925 -0.025271084 255
1.4516939 0.015709635 0.025340894 255
1.2382303 0.013183497 0.064896591 253
1.5121435 0.015572 0.13230242 241
1.383541 0.013764688 0.16988587 238
1.3160535 0.01286356 -0.16159877 125
1.5367697 0.015020917 0.24341206 226
1.5699307 0.01507103 -0.13735744 135
1.6353184 0.015413312 0.31788781 234
1.5797644 0.01461322 -0.082795486 232
1.5608767 0.014166817 0.36037159 100
1.4557184 0.01321238 -0.025410704 255
1.4797329 0.011105962 0.025829561 255
1.2502521 0.0089466078 0.065524623 245
1.5400814 0.010483732 0.13474278 241
1.4193099 0.0094132181 0.17427318 235
1.3458645 0.0086912178 -0.16525485 117
1.5328621 0.009631997 0.24278632 226
1.5580196 0.0095174154 -0.13631159 134
1.6078753 0.0098219672 0.31254515 237
1.5798042 0.0093747685 -0.082795486 232
1.5394793 0.0088675264 0.35542265 100
1.4397582 0.0080411602 -0.025131466 255
1.4817625 0.0059482963 0.025864467 254
1.242286 0.0047701467 0.065105937 242
1.5241687 0.0053205136 0.13334829 241
1.3955129 0.0043849703 0.1713483 220
1.3697077 0.0040641851 -0.16817972 100
1.5447379 0.0045835329 0.24466354 226
1.5620273 0.0043622232 -0.1366602 134
1.5764879 0.0041267206 0.30643925 237
1.6197724 0.0039581088 -0.084888928 227
1.5414495 0.0034976988 0.35587254 100
1.4437765 0.0032760692 -0.025201276 255
1.4817741 0.0010348588 0.025864467 250
1.2502841 0.00043678275 0.065524623 240
1.5500791 -0 0.13561434 228
1.3994901 -0.0002442571 0.1718358 193
1.333982 -0.00046564758 -0.16379242 71
1.6079564 -0.00084192411 0.25467533 226
1.5421091 -0.0010765954 -0.1349171 133
1.592199 -0.0011115647 0.3094922 237
1.6237711 -0.0014170078 -0.085098274 227
1.4732468 -0.0015427809 0.34012601 100
1.4557773 -0.0017785683 -0.025410704 255
1.493766 -0.0044321059 0.026073895 246
1.264258 -0.0041924538 0.066257328 238
1.5460849 -0.005396876 0.13526571 228
1.3974947 -0.0053660208 0.17159206 100
1.3597773 -0.0054585249 -0.16696103 48
1.5644847 -0.0065533365 0.24779223 226
1.5381112 -0.0064428626 -0.13456847 132
1.6883826 -0.0073670056 0.32819149 100
1.6157659 -0.0073321634 -0.084679581 226
1.5453339 -0.0072822683 0.35677236 100
1.4717585 -0.0071924259 -0.025689943 255
1.4937414 -0.0096462946 0.026073895 242
1.2662328 -0.0086191064 0.066361994 235
1.5500413 -0.010821505 0.13561434 228
1.3855573 -0.010156847 0.17012961 100
1.3557799 -0.010175204 -0.16647354 27
1.5644523 -0.012014367 0.24779223 226
1.5440563 -0.011857734 -0.13509139 130
1.6549724 -0.012998389 0.321704 100
1.5857726 -0.01273167 -0.083109505 135
1.5297097 -0.012548561 0.35317314 73
1.4757234 -0.012363281 -0.025759753 255
1.6342684 -0.015973594 -0.43792182 1
1.4896996 -0.014820581 0.026004087 243
1.2921582 -0.013306394 0.06772273 233
1.5739014 -0.016482458 0.13770607 216
1.419258 -0.015358449 0.17427318 100
1.3577211 -0.014929524 -0.16671728 14
1.5387225 -0.017188411 0.24372493 100
1.5679096 -0.017788135 -0.13718314 130
1.6981058 -0.019265225 0.33009958 100
1.5937071 -0.018358998 -0.083528191 142
1.5355023 -0.017956531 0.35452285 23
1.4936672 -0.017728034 -0.026073895 255
1.657379 -0.022274917 -0.44413349 1
1.5076343 -0.02026237 0.026318228 239
1.5393621 -0.020957503 -0.35542265 1
1.3020891 -0.017954474 0.068246089 226
1.5698462 -0.022194654 0.13735744 195
1.4072864 -0.020142036 0.17281075 100
1.3695701 -0.019841298 -0.16817972 6
1.5584048 -0.022849044 0.24685362 100
1.555885 -0.023083711 -0.13613726 130
1.6607261 -0.024929091 0.32284883 100
1.6295756 -0.024745971 -0.085412286 137
1.5373747 -0.023614237 0.35497275 7
1.5215888 -0.023371765 -0.026562562 234
1.6572913 -0.028060114 -0.44413349 1
1.5155474 -0.025924793 0.026457848 236
1.5587595 -0.026936108 -0.35992166 1
1.2940308 -0.022361469 0.067827404 226
1.5578066 -0.027463589 0.13631159 100
1.4072031 -0.025299862 0.17281075 100
1.5760909 -0.028611436 0.24966943 216
1.5338824 -0.028113008 -0.13421984 126
1.6174449 -0.029926931 0.31445324 100
1.6314763 -0.030471396 -0.085516959 134
1.5374928 -0.028984487 -0.026841803 233
1.6764976 -0.03423943 -0.44930989 1
1.5074561 -0.030787062 0.026318228 236
1.5937314 -0.032827355 -0.36801991 1
1.3258941 -0.027542006 0.06950216 226
1.5776206 -0.033321906 0.1380547 100
1.371388 -0.0292054 0.16842344 100
1.562157 -0.033813614 0.24747935 201
1.5317829 -0.033423621 -0.13404553 121
1.5820066 -0.034519505 0.30758414 100
1.5954242 -0.035090867 -0.083632864 134
1.5173903 -0.033904463 -0.026492754 217
1.6338861 -0.038789988 -0.43792182 1
1.5233324 -0.036431361 0.026597466 229
1.5858145 -0.038202591 -0.3662203 1
1.3337766 -0.032363869 0.069920845 226
1.5416492 -0.037677094 0.1349171 100
1.4751596 -0.036309741 -0.23371312 2
1.3990604 -0.034680959 0.1718358 100
1.5620296 -0.039266352 0.24747935 225
1.5954001 -0.040105224 -0.13962351 100
1.6172037 -0.040935755 0.31445324 100
1.6132615 -0.041117717 -0.084574915 132
1.5272578 -0.039459176 -0.026667278 193
1.5912559 -0.043336049 -0.42653382 1
1.5152001 -0.041529406 0.026457848 231
1.5389194 -0.042448312 -0.35542265 1
1.323673 -0.03674233 0.069397487 194
1.3796364 -0.038295757 -0.26827747 2
1.5514663 -0.043336377 0.13578865 100
1.4829223 -0.041680794 -0.23496459 2
1.4028993 -0.039676618 0.17232326 100
1.5776796 -0.045170892 0.2499823 100
1.5613936 -0.044704605 -0.1366602 100
1.5895768 -0.045789182 0.30911061 100
1.5691868 -0.045475937 -0.082272127 100
1.581705 -0.046115007 0.3653205 2
1.5431013 -0.045259066 -0.026946515 182
1.6335754 -0.050195623 -0.43792182 1
1.6269754 -0.050277051 0.028412517 230
1.5504488 -0.04818308 -0.35812208 1
1.3155515 -0.041113041 0.068978801 139
1.4383632 -0.044951096 -0.279726 2
1.5373657 -0.048313662 0.13456847 100
1.4827678 -0.046856906 -0.23496459 2
1.4047363 -0.044636451 0.172567 100
1.3233813 -0.042282548 -0.16257372 4
1.559743 -0.050106898 0.24716648 216
1.5532625 -0.04989871 -0.13596295 60
1.6698587 -0.053936124 0.32475692 65
1.5969654 -0.051860705 -0.083737537 100
1.5386848 -0.050236907 0.35542265 2
1.516952 -0.04979239 -0.026492754 159
1.5870529 -0.054311812 -0.42549852 1
1.5688331 -0.053962432 0.027400278 226
1.6125935 -0.055749428 -0.37251896 1
1.3094119 -0.045496855 0.068664782 136
1.4381976 -0.049971648 -0.279726 2
1.5770113 -0.055070445 0.1380547 100
1.4589052 -0.051201038 -0.23121016 2
1.4224267 -0.050169375 0.17476064 100
1.3430642 -0.047604926 -0.16501111 4
1.5792998 -0.056254297 0.25029516 216
1.5530789 -0.055320311 -0.13596295 22
1.6225722 -0.058079202 0.3155981 25
1.63869 -0.058942508 -0.085935652 132
1.6086091 -0.058141634 0.37161914 2
1.5207657 -0.055232391 -0.026562562 135
1.5019809 -0.054812644 0.40272245 1
1.567549 -0.059123214 -0.42032215 1
1.5526491 -0.058832612 0.027121039 223
1.5383906 -0.058561221 -0.35542265 1
1.309245 -0.050067279 0.068664782 132
1.4380144 -0.054991592 -0.279726 2
1.5131 -0.058127437 0.13247673 100
1.4468743 -0.055836208 -0.22933295 2
1.3686857 -0.053058077 0.16817972 48
1.3309882 -0.051829353 -0.16354866 3
1.5238256 -0.059604906 0.24153483 100
1.5469037 -0.060507614 -0.13544002 10
1.612551 -0.063357301 0.31369001 7
1.6025516 -0.063244559 -0.084051557 100
1.5655576 -0.062058259 0.36172128 1
1.5205636 -0.060540516 -0.026562562 135
1.4786166 -0.059128899 0.39651078 1
1.6136582 -0.066503823 -0.43274546 1
1.5704162 -0.064996243 0.027435182 186
1.577118 -0.065549351 -0.36442071 1
1.3170444 -0.054970242 0.069083467 131
1.4181982 -0.059192162 -0.27590984 1
1.5546913 -0.065160863 0.13613726 100
1.4703542 -0.061883174 -0.23308739 2
1.4339417 -0.060601391 0.17622308 19
1.3426991 -0.056980047 -0.16501111 3
1.5808423 -0.067362532 0.25060806 100
1.5864948 -0.067603394 -0.13892625 5
1.655472 -0.070832096 0.32208559 4
1.6142936 -0.06935247 -0.084679581 100
1.580907 -0.068194568 0.3653205 2
1.5363256 -0.066540129 -0.026841803 132
1.5015616 -0.06529703 0.40272245 1
1.5902572 -0.071100697 -0.42653382 1
1.5761728 -0.070746623 0.027539898 174
1.5690925 -0.070703238 -0.3626211 1
1.3108588 -0.059296489 0.068769448 129
1.4062154 -0.063609928 -0.2736201 1
1.5464929 -0.070225835 0.13544002 100
1.4622358 -0.066655472 -0.23183592 2
1.4614837 -0.066876806 0.17963544 7
1.342492 -0.061666593 -0.16501111 3
1.554945 -0.071697459 0.24654076 100
1.5524144 -0.071580783 -0.13596295 5
1.6571759 -0.076701112 0.32246721 2
1.6300025 -0.075728513 -0.085516959 100
1.592339 -0.074257217 0.36801991 2
1.5340863 -0.071808994 -0.026806895 133
1.5437783 -0.072532706 0.41411048 1
1.6324506 -0.078697808 -0.43792182 1
1.5839057 -0.076634623 0.027679518 134
1.5221214 -0.073911577 -0.35182345 1
1.2847103 -0.062608056 0.067408718 127
1.4452034 -0.0704294 -0.28125247 2
1.5641484 -0.076499626 0.13700882 100
1.4817243 -0.072727636 -0.23496459 2
1.4433972 -0.071098953 0.17744178 4
1.3303725 -0.06576433 -0.16354866 3
1.5389014 -0.0763418 0.24403779 100
1.5720545 -0.077986456 -0.13770607 5
1.6529764 -0.082290038 0.321704 2
1.6177597 -0.080819897 -0.084888928 42
1.5570368 -0.078058742 0.35992166 2
1.5278349 -0.076862097 -0.026702182 129
1.5145748 -0.076460026 0.4063459 1
