# .PCD v0.7 - Point Cloud Data file format
VERSION 0.7
FIELDS x y z intensity
SIZE 4 4 4 4
TYPE F F F F
COUNT 1 1 1 1
WIDTH 162
HEIGHT 1
VIEWPOINT 0 0 0 1 0 0 0
POINTS 162
DATA ascii
1.3805239 0.1241802 0.072642311 255
1.645075 0.14768754 0.14450422 255
1.595758 0.13848875 0.027958756 255
1.3849288 0.11970412 0.072851658 255
1.6694006 0.14399928 0.14659595 255
1.6199315 0.13745311 -0.028377613 255
1.5922462 0.13258536 0.027888944 255
1.3813572 0.11453995 0.072642311 255
1.6698931 0.13817066 0.14659595 255
1.6243876 0.13212146 -0.028447423 255
1.5687789 0.12511837 0.027470089 255
1.3897126 0.11034943 0.073060997 255
1.6663929 0.13202563 0.14624733 255
1.6128767 0.12552065 -0.028237993 255
1.5971206 0.12177097 0.027958756 255
1.4538183 0.11033393 0.076410502 255
1.6588968 0.12560746 0.14555009 255
1.6172936 0.12018587 -0.028307803 255
1.6055138 0.11677507 0.028098376 255
1.3705287 0.099202819 0.07201428 255
1.6712484 0.12067658 0.14659595 255
1.6216925 0.11482254 -0.028377613 255
1.6138912 0.1117228 0.028237993 255
1.3748518 0.094692282 0.072223626 255
1.6796103 0.11538867 0.1472932 255
1.6300642 0.10969771 -0.028517231 255
1.6242483 0.10674383 0.028412517 255
1.3831458 0.09041398 0.072642311 255
1.6760265 0.10926536 0.14694458 255
1.6304374 0.10400663 -0.028517231 255
1.6325943 0.10156973 0.028552137 255
1.3914268 0.086078264 0.073060997 255
1.680375 0.10365917 0.1472932 255
1.6347826 0.098555714 -0.028587043 255
1.6409241 0.096339449 0.028691756 255
1.3957067 0.081453778 0.073270351 255
1.6687924 0.097098902 0.14624733 255
1.6351166 0.092849009 -0.028587043 255
1.6412504 0.090610534 0.028691756 255
1.407948 0.077238061 0.073898375 255
1.6850365 0.092142992 0.14764182 255
1.6354307 0.087141164 -0.028587043 255
1.6575328 0.085708171 0.028970996 255
1.408209 0.072322562 0.073898375 255
1.6933068 0.08666908 0.14833906 255
1.6556972 0.082425758 -0.02893609 255
1.6618026 0.080403939 0.029040804 255
1.4164209 0.068035282 0.074317068 255
1.6915948 0.080957688 0.14816476 255
1.635986 0.076006323 -0.028587043 254
1.6620731 0.074602239 0.029040804 255
1.4246309 0.063447051 0.074735753 255
1.7058003 0.075670049 0.14938495 253
1.6422348 0.070553817 -0.028691756 253
1.6703154 0.069130391 0.029180422 255
1.4208524 0.058309603 0.074526407 254
1.6722116 0.068331875 0.14642164 255
1.6464674 0.064978205 -0.028761568 253
1.6785396 0.063603505 0.029320043 255
1.4410059 0.054098457 0.075573131 255
1.7182441 0.063905992 0.15043081 253
1.6426873 0.059086356 -0.028691756 253
1.6787615 0.057450492 0.029320043 255
1.4371938 0.048932455 0.075363785 255
1.7065092 0.057505567 0.14938495 253
1.6588727 0.053871538 -0.028970996 253
1.6869378 0.052130602 0.029459663 255
1.425378 0.043549079 0.074735753 255
1.7226316 0.052029956 0.15077944 253
1.6590507 0.048080217 -0.028970996 253
1.6891084 0.046296112 0.029494567 255
1.4414935 0.039005816 0.075573131 255
1.7227945 0.046316739 0.15077944 253
1.6552104 0.042187206 -0.028901186 248
1.7032535 0.04073396 0.029738901 254
1.4675779 0.034585848 0.076933861 248
1.7229457 0.040302325 0.15077944 253
1.6673428 0.036673371 -0.029110614 253
1.7033854 0.034788605 0.029738901 250
1.4716784 0.029799458 0.077143207 248
1.7390118 0.03460535 0.15217392 253
1.6634564 0.031068914 -0.029040804 253
1.7074902 0.029208528 0.029808709 251
1.4717734 0.024662467 0.077143207 248
1.741114 0.028567908 0.15234824 248
1.6875485 0.025626091 -0.029459663 253
1.7435728 0.023737641 0.030436996 246
1.483833 0.01968343 0.077771239 245
1.7511605 0.022923928 0.1532198 241
1.6516356 0.019314744 -0.028831376 244
1.71965 0.017408747 0.030018138 246
1.4798983 0.014465036 0.0775619 243
1.7751373 0.017040974 0.15531152 241
1.7036834 0.013975379 -0.029738901 247
1.7316982 0.011485056 0.030227568 246
1.4879287 0.0093496498 0.077980585 245
1.7712013 0.01081967 0.15496291 241
1.6997223 0.0080106528 -0.029669091 244
1.7357271 0.0054539884 0.030297378 246
1.4999357 0.0041888217 0.078608617 240
1.7831825 0.004667778 0.15600878 241
1.7077386 0.0020867873 -0.029808709 244
1.7357355 -0.00060588605 0.030297378 246
1.5239084 -0.00079791667 0.079864673 235
1.7911576 -0.0015630801 0.15670602 241
1.7477293 -0.0039654789 -0.030506806 244
1.741722 -0.006687765 0.030402092 236
1.5199008 -0.0063665826 0.079655334 235
1.8369657 -0.0080153253 0.16071519 226
1.723709 -0.0099279601 -0.03008795 244
1.7516862 -0.012840761 0.030576617 241
1.5238637 -0.011702662 0.079864673 235
1.8249726 -0.014333595 0.15966932 226
1.7356614 -0.01605575 -0.030297378 231
1.7456319 -0.018890291 0.0304719 236
1.5318021 -0.017111106 0.080283366 235
1.7990119 -0.02041002 0.15740328 204
1.7455924 -0.022241626 -0.0304719 234
1.7575524 -0.02515528 0.030681333 236
1.5437154 -0.02263367 0.080911398 235
1.8288124 -0.027132967 0.16001794 199
1.7595003 -0.028561948 -0.030716237 232
1.7734489 -0.031574905 0.030960569 236
1.5596023 -0.028312111 0.081748769 226
1.8008177 -0.033005401 0.15757757 100
1.7513926 -0.034545831 -0.030576617 218
1.7813247 -0.037935514 0.031100187 236
1.5814588 -0.034231409 0.082900167 224
1.8345541 -0.040030114 0.16054088 100
1.7792495 -0.041308925 -0.031065283 206
1.7831806 -0.044202819 0.031135093 235
1.5673532 -0.039400179 0.082167462 223
1.8144858 -0.045929492 0.15879777 100
1.7950865 -0.047946554 -0.031344522 182
1.8010055 -0.050935805 0.031449236 224
1.5133022 -0.043327689 0.079341315 129
1.8163059 -0.052320316 0.15897207 100
1.8009044 -0.054393392 -0.031449236 170
1.8228023 -0.057920784 0.03183319 226
1.5770211 -0.050661959 0.08269082 144
1.8459823 -0.059624888 0.16158675 100
1.776721 -0.05987123 -0.031030379 142
1.8105981 -0.063860282 0.031623758 226
1.5808268 -0.056308683 0.082900167 139
1.8198785 -0.065141685 0.1593207 100
1.7765011 -0.066072777 -0.031030379 135
1.8303463 -0.07095468 0.031972811 222
1.5866077 -0.062060647 0.083214179 134
1.8196399 -0.071493857 0.1593207 100
1.7722634 -0.072110921 -0.030960569 134
1.840077 -0.077765517 0.032147333 200
1.5644314 -0.066663235 0.082062788 129
1.8173889 -0.077759974 0.15914638 100
1.7959739 -0.079356097 -0.031379428 133
1.8417919 -0.08427953 0.032182239 100
1.5641892 -0.072123706 0.082062788 126
1.8031744 -0.083458543 0.1579262 100
1.7737143 -0.084577046 -0.030995475 131
1.8135247 -0.08933071 0.03169357 100
1.5320241 -0.075732589 0.080388032 122
1.7929225 -0.089256965 0.15705465 100
1.7814125 -0.090865895 -0.031135093 129
