# .PCD v0.7 - Point Cloud Data file format
VERSION 0.7
FIELDS x y z intensity
SIZE 4 4 4 4
TYPE F F F F
COUNT 1 1 1 1
WIDTH 315
HEIGHT 1
VIEWPOINT 0 0 0 1 0 0 0
POINTS 315
DATA ascii
2.1404548 0.20082578 -0.26396903 12
1.8835901 0.17175263 0.099124312 255
2.0007405 0.18102565 0.24666359 255
1.8642819 0.16343193 0.098077588 255
2.143625 0.18716654 0.1882564 255
2.0290163 0.17680289 0.25007591 255
2.1299062 0.1852186 -0.26250657 100
2.1278057 0.18316633 -0.037278343 255
2.1081648 0.17814019 0.036929294 255
1.8927042 0.1592675 0.099542998 255
2.1760006 0.18272495 0.19104539 255
2.0335774 0.17004952 0.25056338 255
2.0949316 0.17481284 -0.25811929 100
2.2476063 0.1871568 -0.19732061 244
2.2571456 0.18715896 -0.11869796 255
2.1244464 0.17540811 -0.037208531 255
2.1207328 0.17174818 0.037138719 255
1.8972303 0.15298121 0.099752344 255
2.1706669 0.17464823 0.19052245 255
2.0302012 0.16263337 0.25007591 255
2.0994868 0.1678149 -0.25860679 100
2.2561903 0.17994305 -0.19801784 244
2.2617671 0.17959449 -0.1189073 255
2.1330194 0.16862214 -0.037348151 255
2.1213195 0.16434485 0.037138719 255
1.8858047 0.14543575 0.099124312 255
2.1633177 0.16645814 0.18982521 255
2.0347152 0.15584832 0.25056338 255
2.1178739 0.16184606 -0.26080042 100
2.2528312 0.17176501 -0.19766922 244
2.234499 0.16958176 -0.1174419 255
2.1335952 0.16117492 -0.037348151 255
2.1178916 0.15664348 0.037068911 255
1.8902845 0.13914584 0.099333659 255
2.1638854 0.15890619 0.18982521 255
2.0075293 0.14671962 0.24715105 255
2.0946679 0.15272059 -0.25787556 100
2.2653401 0.16476671 -0.19871511 244
2.2470295 0.16264647 -0.11806992 255
2.138134 0.15401307 -0.037417959 255
2.1264048 0.1498113 0.037208531 255
1.8867508 0.13259698 0.099124312 255
2.1843023 0.1527411 0.19156833 255
2.0199113 0.14053825 0.24861349 255
2.089247 0.14499502 -0.25714433 100
2.2460246 0.15548269 -0.19697197 238
2.2635241 0.15589917 -0.1189073 255
2.1426227 0.14719747 -0.037487768 255
2.1348705 0.14329517 0.037348151 255
1.8991593 0.12680806 0.099752344 255
2.1768701 0.14458781 0.19087107 255
2.0243275 0.13410108 0.24910097 255
2.0817933 0.13754296 -0.25616938 100
2.2386017 0.14711845 -0.19627473 234
2.2739933 0.14904578 -0.11943066 255
2.1391325 0.13945669 -0.037417959 255
2.139349 0.13609658 0.037417959 255
1.9075632 0.1206819 0.10017103 255
2.1773376 0.13736868 0.19087107 255
2.0366704 0.12777929 0.25056338 255
2.102073 0.13151531 -0.25860679 100
2.2907789 0.14292026 -0.20080683 243
2.2744997 0.14110763 -0.11943066 250
2.1435981 0.13223453 -0.037487768 255
2.1517878 0.12934738 0.037627388 255
1.9159478 0.11449952 0.10058971 255
2.1778038 0.12976694 0.19087107 255
2.0410676 0.12090442 0.25105089 255
2.1223357 0.12534672 -0.26104417 100
2.2713742 0.13375126 -0.19906372 234
2.239089 0.13106589 -0.11754657 255
2.1440465 0.12475163 -0.037487768 255
2.2001419 0.12454838 0.038465101 255
1.9043711 0.10713819 0.099961683 255
2.1862006 0.12261093 0.19156833 255
2.0494051 0.11422033 0.25202581 255
2.0870838 0.11595592 -0.25665686 100
2.2777953 0.12615287 -0.19958666 232
2.2834067 0.12566313 -0.11984935 251
2.144469 0.11726617 -0.037487768 255
2.1646194 0.11495822 0.03783682 255
1.9206893 0.10133225 0.10079906 255
2.2065117 0.11602454 0.19331144 255
2.0656502 0.10789566 0.25397575 253
2.0914404 0.10887576 -0.25714433 100
2.2881706 0.11871667 -0.20045821 234
2.2918098 0.11810341 -0.12026804 252
2.1528537 0.11019022 -0.037627388 255
2.164989 0.10777988 0.03783682 255
1.9250045 0.095159151 0.10100841 255
2.1869845 0.10772706 0.19156833 255
2.0422041 0.099880889 0.25105089 253
2.0779109 0.10126374 -0.25543818 100
2.2885709 0.11072923 -0.20045821 234
2.2881989 0.11031096 -0.1200587 248
2.157202 0.10324108 -0.0376972 255
2.1753399 0.10068371 0.038011342 255
1.9333055 0.088805124 0.10142709 255
2.1913455 0.099892572 0.19191694 255
2.0623708 0.093651608 0.25348827 253
2.0703194 0.093650483 -0.2544632 100
2.2809818 0.10238199 -0.19976096 234
2.2885878 0.10192405 -0.1200587 249
2.1575494 0.095709838 -0.0376972 255
2.1796899 0.092880756 0.038081151 255
1.9376091 0.0818877 0.10163644 255
2.2036242 0.092744835 0.1929628 255
2.0706336 0.086423583 0.2544632 252
2.1023829 0.087381184 -0.25836304 100
2.2892883 0.094748206 -0.20045821 234
2.3028986 0.094507419 -0.1207914 247
2.1718717 0.088370934 -0.03794153 254
2.1720078 0.08495947 0.03794153 255
1.9338915 0.074968435 0.10142709 254
2.2158802 0.085513644 0.19400868 255
2.0748899 0.079346359 0.25495067 252
2.0868056 0.079438314 -0.25641313 100
2.2856228 0.086607203 -0.20010957 234
2.3032143 0.086467616 -0.1207914 247
2.1701691 0.080714263 -0.037906628 255
2.1842821 0.077803761 0.038150962 255
1.9461055 0.068979882 0.10205512 254
2.2241299 0.0780572 0.19470593 255
2.0850737 0.072449267 0.25616938 249
2.0791221 0.072242461 -0.25543818 100
2.2480783 0.077326424 -0.19679767 100
2.29951 0.07829193 -0.12058206 247
2.1624305 0.073246919 -0.037767008 255
2.1845281 0.070560426 0.038150962 255
1.9383388 0.062268931 0.10163644 255
2.2164109 0.07042861 0.19400868 255
2.0932388 0.065783344 0.25714433 249
2.0872867 0.065596282 -0.25641313 100
2.3020906 0.071541429 -0.20150407 229
2.3037496 0.070789203 -0.1207914 243
2.1786516 0.066563591 -0.038046245 254
2.1927454 0.063546985 0.038290579 255
1.9505228 0.055846792 0.10226447 254
2.2245986 0.063304424 0.19470593 255
2.1251948 0.059734367 0.26104417 248
2.1271894 0.059417885 -0.2612879 100
2.3341815 0.064792022 -0.20429306 234
2.2999787 0.063039221 -0.12058206 247
2.1748726 0.058850545 -0.037976436 255
2.1969519 0.055994857 0.038360391 255
1.9586924 0.049238104 0.10268316 254
2.2367566 0.055837542 0.19575179 255
2.1293592 0.052412815 0.26153165 241
2.0916626 0.051118679 -0.25690058 100
2.3104918 0.056064334 -0.20220132 211
2.3081715 0.055200804 -0.12100074 243
2.2010536 0.051871389 -0.038430199 254
2.2011323 0.048414126 0.038430199 255
1.9548588 0.042314656 0.10247381 254
2.23893 0.048071638 0.19592611 253
2.1235752 0.044854332 0.26080042 238
2.111675 0.04423327 -0.25933796 100
2.3206334 0.048205137 -0.20307288 207
2.3522809 0.048041135 -0.12330353 243
2.1832275 0.04382617 -0.038116053 254
2.2172828 0.041025814 0.038709439 255
1.9749638 0.035852663 0.10352053 254
2.3048222 0.041438397 0.20167838 249
2.11181 0.037230883 0.25933796 238
2.119756 0.037000906 -0.26031294 100
2.3088348 0.039898269 -0.20202701 100
2.3124948 0.039154112 -0.12121009 232
2.1853669 0.036238633 -0.038150962 248
2.2174125 0.033286266 0.038709439 255
1.9930503 0.029221527 0.10446258 253
2.273078 0.032931507 0.1988894 248
2.1119273 0.029858502 0.25933796 238
2.1119325 0.029490929 -0.25933796 100
2.2970121 0.031272367 -0.20098113 100
2.3525589 0.031619072 -0.12330353 232
2.1854801 0.028609477 -0.038150962 248
2.213516 0.025499189 0.038639627 255
2.0011289 0.022353966 0.10488127 245
2.2831447 0.024707256 0.19976096 246
2.1497333 0.022888312 0.26396903 237
2.0921726 0.021910289 -0.25690058 100
2.2891383 0.023173919 -0.20028389 100
2.3706334 0.023171388 -0.12424557 221
2.1895657 0.021019405 -0.038220771 247
2.2195935 0.017433682 0.038744342 246
2.0011973 0.015019753 0.10488127 245
2.2752476 0.016679503 0.19906372 241
2.1617131 0.015091592 0.26543146 228
2.0942237 0.014255921 -0.25714433 100
2.3131135 0.015341147 -0.20237562 100
2.3726971 0.01490924 -0.12435025 232
2.1936274 0.013017277 -0.038290579 247
2.2316389 0.0097375102 0.03895377 246
2.0212102 0.008113822 0.10592799 245
2.2812691 0.0087596485 0.19958666 228
2.1518271 0.0075115212 0.26421279 221
2.122052 0.0070372331 -0.26055667 64
2.3131528 0.0072683711 -0.20237562 100
2.3248005 0.006492395 -0.12183812 100
2.2096567 0.0053995629 -0.038569819 244
2.2436578 0.0019585206 0.039163202 246
2.0212262 0.0010578944 0.10592799 245
2.2892554 0.0007997441 0.20028389 228
2.1558104 -0 0.26470023 100
2.104198 -0.00036725181 -0.25836304 30
2.3012097 -0.00080327375 -0.20132977 100
2.3987079 -0.0016746141 -0.12571098 224
2.2176611 -0.0023223299 -0.038709439 244
2.2516496 -0.0058948174 0.039302818 246
2.009234 -0.0059615346 0.10529996 245
2.3011985 -0.007229452 0.20132977 228
2.1657226 -0.007559828 0.26591894 100
2.1240346 -0.0077850283 -0.26080042 19
2.301193 -0.00883599 -0.20132977 100
2.3767176 -0.0099556288 -0.12455959 206
2.2456348 -0.010190438 -0.039198104 243
2.2476158 -0.013730074 0.03923301 246
2.0251787 -0.013078215 0.10613733 245
2.3410063 -0.01552637 0.204816 228
2.1597278 -0.015077989 0.26518771 100
2.1239946 -0.015199246 -0.26080042 10
2.3031402 -0.016883202 -0.20150407 100
2.3766682 -0.018251861 -0.12455959 163
2.2455854 -0.018029101 -0.039198104 234
2.2595515 -0.021690806 0.039442439 246
2.0331092 -0.020226803 0.10655601 231
2.3469145 -0.023758415 0.20533893 226
2.159662 -0.022616751 0.26518771 100
2.1140034 -0.022507608 -0.25958171 5
2.3030674 -0.024922559 -0.20150407 100
2.3266618 -0.025990143 -0.1219428 100
2.2375107 -0.02577541 -0.039058488 234
2.2634616 -0.029630335 0.039512251 246
2.0490077 -0.027180661 0.10739339 226
2.3428328 -0.031896282 0.2049903 194
2.1476605 -0.029988945 0.26372528 100
2.117887 -0.029573202 -0.26006919 3
2.3268728 -0.033303779 -0.20359582 100
2.4064386 -0.035282761 -0.12612967 100
2.2374129 -0.033195123 -0.039058488 234
2.283345 -0.037464134 0.039861299 240
2.0489063 -0.033975266 0.10739339 226
2.3048644 -0.039024375 0.20167838 100
2.1376255 -0.036939185 0.26250657 100
2.1654124 -0.03741936 -0.26591894 3
2.3147969 -0.040809065 -0.20254995 100
2.4003174 -0.043154895 -0.12581564 100
2.2492867 -0.04083224 -0.039267913 233
2.2852073 -0.045075208 0.039896201 237
2.0567627 -0.041287422 0.10781208 226
2.3186662 -0.046949707 0.20289856 100
2.1493993 -0.044272885 0.26396903 100
2.0799282 -0.043205108 -0.25543818 3
2.3026886 -0.048636518 -0.20150407 100
2.3821902 -0.050731685 -0.12487361 100
2.2711222 -0.04915949 -0.039651867 231
2.2970312 -0.053330284 0.04010563 229
2.0705829 -0.048795991 0.10854478 220
2.3383965 -0.055924088 0.20464167 100
2.1670921 -0.052205689 0.26616266 100
2.1035788 -0.051042993 -0.25836304 3
2.3264065 -0.057262421 -0.20359582 100
2.3839846 -0.05951234 -0.12497827 100
2.2449489 -0.056433596 -0.039198104 181
2.2888243 -0.061534002 0.039966013 231
2.0883586 -0.056874081 0.10948683 217
2.3202624 -0.063594982 0.20307288 100
2.1549802 -0.059817642 0.26470023 100
2.1152837 -0.05908522 -0.25982547 3
2.330164 -0.065901399 -0.20394444 49
2.37378 -0.067549579 -0.12445491 100
2.2587187 -0.065064415 -0.039442439 184
2.2905943 -0.069583833 0.040000916 226
2.0621953 -0.063366018 0.10812609 100
2.2722194 -0.070613444 0.1988894 100
2.1249967 -0.066409461 0.26104417 100
2.1031597 -0.066094451 -0.25836304 2
2.3199627 -0.073718399 -0.20307288 31
2.3735166 -0.076249458 -0.12445491 100
2.2884579 -0.073916763 -0.039966013 100
2.3003304 -0.077917553 0.040175438 216
2.0679498 -0.070768967 0.10844011 100
2.2998497 -0.079106882 0.20132977 100
2.1783171 -0.075687855 0.26762509 100
2.1267228 -0.074266791 -0.2612879 3
2.3216968 -0.081481151 -0.20324717 12
2.3812349 -0.084402904 -0.12487361 100
2.2562113 -0.080760017 -0.039407536 100
2.3420086 -0.087514825 0.040908441 223
2.0617025 -0.077761196 0.10812609 100
2.2896049 -0.086757168 0.20045821 100
2.170105 -0.082987718 0.26665017 54
2.1264505 -0.081689991 -0.2612879 3
2.3313527 -0.089969046 -0.20411874 6
2.3729427 -0.092403583 -0.12445491 100
2.2758973 -0.089420252 -0.039756581 100
2.3316987 -0.095281199 0.040733919 216
2.0853806 -0.085580371 0.10938216 100
2.3450272 -0.097055778 0.20533893 100
2.2015357 -0.091886766 0.27054995 21
2.078552 -0.087117136 -0.25543818 2
2.4145103 -0.10246444 -0.12665303 100
2.2556095 -0.096115574 -0.039407536 100
2.323379 -0.10265978 0.040594298 200
2.0990362 -0.093481205 0.11011487 100
2.3128281 -0.10381144 0.20254995 100
2.1813881 -0.09829326 0.26811257 7
2.1020486 -0.095085829 -0.25836304 2
2.3842297 -0.10910123 -0.12508295 68
2.2812285 -0.10518591 -0.039861299 100
2.3250039 -0.11086451 0.040629201 100
2.0647826 -0.099178627 0.10833544 100
2.2746594 -0.10965765 0.19923802 100
2.4755971 -0.12194312 -0.12989786 48
2.2928307 -0.11374271 -0.040070724 100
