# .PCD v0.7 - Point Cloud Data file format
VERSION 0.7
FIELDS x y z intensity
SIZE 4 4 4 4
TYPE F F F F
COUNT 1 1 1 1
WIDTH 544
HEIGHT 1
VIEWPOINT 0 0 0 1 0 0 0
POINTS 544
DATA ascii
1.7271891 0.16235486 -0.46483904 7
1.7966725 0.16825363 -0.41660935 3
1.7338489 0.16206513 -0.33849517 3
1.7721477 0.16502102 -0.28189492 4
1.6880211 0.15659374 -0.20815286 30
1.8220206 0.1648552 -0.49020329 2
1.8244209 0.16443038 -0.42290798 3
1.3805239 0.1241802 0.072642311 255
1.679654 0.1510874 -0.32780987 3
1.645075 0.14768754 0.14450422 255
1.7372981 0.15566045 -0.2762633 4
1.5244232 0.13631961 0.18792254 255
1.8071885 0.15715478 -0.4860622 2
1.595758 0.13848875 0.027958756 255
1.8463399 0.15991099 -0.42785689 3
1.3849288 0.11970412 0.072851658 255
1.6801713 0.14522293 -0.32780987 3
1.6694006 0.14399928 0.14659595 255
1.7299584 0.14891873 -0.27501184 4
1.5209343 0.13065733 0.18743508 255
1.667317 0.14293936 -0.20547174 100
1.706418 0.14599231 0.2712574 246
1.8289889 0.15615642 0.35681283 218
1.6199315 0.13745311 -0.028377613 255
1.8038756 0.1505255 -0.4850269 3
1.5922462 0.13258536 0.027888944 255
1.8255244 0.15168951 -0.42290798 3
1.3813572 0.11453995 0.072642311 255
1.6689285 0.13838491 -0.32552016 3
1.6698931 0.13817066 0.14659595 255
1.7225931 0.14222848 -0.27376035 4
1.5095106 0.1243705 0.18597263 255
1.592626 0.13093789 -0.19620967 178
1.6990421 0.13938838 0.27000591 246
1.7454464 0.14319538 -0.1532198 244
1.8040855 0.14768997 0.35185182 210
1.7477717 0.14277199 -0.091901943 254
1.6243876 0.13212146 -0.028447423 255
1.8140186 0.14499703 -0.48761511 3
1.5687789 0.12511837 0.027470089 255
1.8279854 0.14547129 -0.42335787 3
1.3897126 0.11034943 0.073060997 255
1.681144 0.1334904 -0.32780987 3
1.6663929 0.13202563 0.14624733 255
1.7545867 0.13870579 -0.27876624 4
1.5099355 0.11910017 0.18597263 255
1.5891154 0.12506586 -0.19572218 146
1.7073956 0.1340757 0.2712574 255
1.7459357 0.13710211 -0.1532198 244
1.828077 0.14323138 0.35643122 228
1.752242 0.13698113 -0.092111297 254
1.6128767 0.12552065 -0.028237993 255
1.7933252 0.13704433 -0.48192108 3
1.5971206 0.12177097 0.027958756 255
1.7701883 0.13465478 -0.40986085 3
1.4538183 0.11033393 0.076410502 255
1.6659387 0.12643228 -0.32475692 3
1.6588968 0.12560746 0.14555009 255
1.7550601 0.13257983 -0.27876624 4
1.51826 0.11442512 0.18694758 254
1.5855832 0.11922146 -0.19523472 146
1.7078533 0.12811451 0.2712574 255
1.7742189 0.13309292 -0.15566015 242
1.8481438 0.13831405 0.3602474 228
1.7527094 0.13086502 -0.092111297 255
1.6172936 0.12018587 -0.028307803 255
1.7957194 0.13092449 -0.48243871 3
1.6055138 0.11677507 0.028098376 255
1.7978585 0.13044873 -0.41615945 4
1.3705287 0.099202819 0.07201428 255
1.6311237 0.11806543 -0.31788781 3
1.6712484 0.12067658 0.14659595 255
1.716107 0.12361382 -0.27250886 4
1.5226103 0.10940959 0.18743508 255
1.5741096 0.11283401 -0.19377227 196
1.696468 0.12130641 0.26938018 246
1.7547996 0.12547743 -0.15391703 244
1.8153245 0.12948772 0.35375988 246
1.7451866 0.12417863 -0.091692604 254
1.6216925 0.11482254 -0.028377613 255
1.7170026 0.12126972 0.46121556 100
1.8212192 0.12639374 -0.48916802 4
1.6138912 0.1117228 0.028237993 255
1.7905263 0.12363651 -0.41435984 4
1.3748518 0.094692282 0.072223626 255
1.7196634 0.11844102 -0.3350606 4
1.6796103 0.11538867 0.1472932 255
1.7204694 0.117894 -0.27313459 4
1.5269438 0.10436434 0.18792254 254
1.5982599 0.10895845 -0.19669713 146
1.6968811 0.11538424 0.26938018 246
1.7353488 0.11799996 -0.15217392 244
1.843188 0.12500964 0.35910255 246
1.7655365 0.11943358 -0.092739321 254
1.6300642 0.10969771 -0.028517231 255
1.7135605 0.11501632 0.46018028 100
1.8100833 0.11927397 -0.4860622 3
1.6242483 0.10674383 0.028412517 255
1.7831688 0.11687535 -0.41256022 4
1.3831458 0.09041398 0.072642311 255
1.682844 0.11000475 -0.32780987 4
1.6760265 0.10926536 0.14694458 255
1.7405826 0.1131689 -0.2762633 4
1.5312606 0.099290892 0.18841003 254
1.6085352 0.10401966 -0.19791584 173
1.7130437 0.11047773 0.27188313 246
1.7556326 0.11322439 -0.15391703 244
1.8553684 0.1193314 0.36139226 242
1.7619563 0.11301467 -0.092529982 254
1.6304374 0.10400663 -0.028517231 255
1.6773204 0.10670422 0.45034516 100
1.8336258 0.11439877 -0.49227384 3
1.6325943 0.10156973 0.028552137 255
1.8088509 0.11221925 -0.41840896 3
1.3914268 0.086078264 0.073060997 255
1.7086912 0.10570529 -0.33277091 4
1.680375 0.10365917 0.1472932 255
1.7646267 0.10854822 -0.28001773 4
1.5395234 0.094430901 0.18938497 254
1.5692607 0.095980026 -0.19304106 137
1.7173623 0.1047383 0.27250886 246
1.7679493 0.10782349 -0.15496291 244
1.8518544 0.1126154 0.36062902 246
1.7703145 0.10734668 -0.092948668 254
1.6347826 0.098555714 -0.028587043 255
1.6931095 0.10177551 0.45448625 100
1.7684448 0.10413595 -0.47467417 3
1.6409241 0.096339449 0.028691756 255
1.3957067 0.081453778 0.073270351 255
1.6659317 0.097224176 -0.3243753 4
1.6687924 0.097098902 0.14624733 255
1.7492185 0.10147219 -0.27751476 4
1.5438071 0.089285947 0.18987246 254
1.5894042 0.091644734 -0.19547844 137
1.7137731 0.098515742 0.27188313 246
1.7722932 0.10187975 -0.15531152 243
1.8287157 0.10480297 0.3560496 246
1.7706784 0.10116684 -0.092948668 254
1.6351166 0.092849009 -0.028587043 255
1.737816 0.098376468 0.46639192 93
1.7977308 0.099565096 -0.48243871 3
1.6412504 0.090610534 0.028691756 255
1.407948 0.077238061 0.073898375 255
1.6850365 0.092142992 0.14764182 255
1.5282521 0.083035253 0.18792254 254
1.5897144 0.086095698 -0.19547844 138
1.7259418 0.093171388 0.27376035 246
1.7885541 0.096551389 -0.15670602 224
1.8584768 0.10000163 0.36177388 241
1.7710208 0.094984941 -0.092948668 254
1.6354307 0.087141164 -0.028587043 255
1.7265741 0.091694579 0.4632861 100
1.832794 0.095090471 -0.4917562 3
1.6575328 0.085708171 0.028970996 255
1.408209 0.072322562 0.073898375 255
1.6933068 0.08666908 0.14833906 255
1.5404278 0.078304403 0.18938497 254
1.5900053 0.080546372 -0.19547844 137
1.7144192 0.086548947 0.27188313 246
1.7252047 0.087093435 -0.15112805 244
1.8725399 0.094203718 0.36444521 242
1.7833099 0.089402735 -0.093576699 254
1.8295342 0.09139999 0.42290798 41
1.6556972 0.082425758 -0.02893609 255
1.7365311 0.086146109 0.46587428 90
1.8195922 0.088355795 -0.48813272 3
1.6618026 0.080403939 0.029040804 255
1.4164209 0.068035282 0.074317068 255
1.6915948 0.080957688 0.14816476 255
1.5565419 0.073948927 0.19133489 254
1.5942293 0.075461306 -0.19596592 137
1.7344286 0.081794143 0.27501184 246
1.7533466 0.08268629 -0.15356842 243
1.8571532 0.087255999 0.36139226 238
1.8554195 0.086850904 -0.09734489 254
1.8259338 0.085151345 0.42200816 37
1.635986 0.076006323 -0.028587043 254
1.7850519 0.08261957 0.47881526 36
1.8411183 0.082961529 -0.49382678 3
1.6620731 0.074602239 0.029040804 255
1.81636 0.081209779 -0.41975865 6
1.4246309 0.063447051 0.074735753 255
1.7058003 0.075670049 0.14938495 253
1.5805886 0.06956359 0.19425975 254
1.5964663 0.069982462 -0.19620967 135
1.7425976 0.076083548 0.2762633 246
1.7595961 0.076825723 -0.15409136 233
1.8888289 0.082138784 0.36749816 231
1.7758957 0.076916337 -0.093158014 254
1.8612648 0.080288343 0.4301064 41
1.6422348 0.070553817 -0.028691756 253
1.8105139 0.075250253 -0.48554453 3
1.6703154 0.069130391 0.029180422 255
1.4208524 0.058309603 0.074526407 254
1.6722116 0.068331875 0.14642164 255
1.5570202 0.06308116 0.19133489 253
1.5947174 0.064328887 -0.19596592 133
1.738905 0.0698421 0.27563757 242
1.7897277 0.071570516 -0.15670602 224
1.8891041 0.075544544 0.36749816 237
1.7801447 0.070875272 -0.093367353 251
1.6464674 0.064978205 -0.028761568 253
1.6785396 0.063603505 0.029320043 255
1.8110408 0.068306871 -0.41840896 3
1.4410059 0.054098457 0.075573131 255
1.7182441 0.063905992 0.15043081 253
1.6405478 0.060729556 0.20157191 254
1.6068345 0.059201524 -0.19742836 100
1.7411121 0.063843682 0.27595043 236
1.8258058 0.066630192 -0.15984364 224
1.8422813 0.066910371 0.35833931 246
1.7883763 0.064639203 -0.093786038 254
1.6426873 0.059086356 -0.028691756 253
1.6787615 0.057450492 0.029320043 255
1.4371938 0.048932455 0.075363785 255
1.7065092 0.057505567 0.14938495 253
1.5792557 0.052665558 0.19401602 249
1.5792648 0.05238919 -0.19401602 132
1.737376 0.057634234 0.2753247 236
1.7543403 0.05789132 -0.15356842 228
1.8738987 0.061509233 0.36444521 243
1.7905872 0.05846091 -0.093890712 243
1.8425369 0.059835993 0.42560738 60
1.6588727 0.053871538 -0.028970996 253
1.6869378 0.052130602 0.029459663 255
1.425378 0.043549079 0.074735753 255
1.6601474 0.050432697 -0.32284883 14
1.7226316 0.052029956 0.15077944 253
1.5873584 0.047666159 0.19499096 249
1.6072087 0.047982257 -0.19742836 135
1.7336174 0.051453292 0.27469894 236
1.7824129 0.052589335 -0.15600878 224
1.8544683 0.054715302 0.36062902 245
1.8107353 0.053109553 -0.094937436 243
1.8875272 0.05503219 0.43595514 100
1.6590507 0.048080217 -0.028970996 253
1.6891084 0.046296112 0.029494567 255
1.4414935 0.039005816 0.075573131 255
1.7074064 0.046201233 -0.33200768 6
1.7227945 0.046316739 0.15077944 253
1.587515 0.042125288 0.19499096 249
1.5875224 0.041848227 -0.19499096 100
1.7416853 0.045607902 0.27595043 236
1.7785943 0.046574403 -0.15566015 224
1.8585732 0.048344154 0.36139226 244
1.7949369 0.046375416 -0.094100058 243
1.8273166 0.046892885 0.42200816 100
1.6552104 0.042187206 -0.028901186 248
1.7032535 0.04073396 0.029738901 254
1.4675779 0.034585848 0.076933861 248
1.7229457 0.040302325 0.15077944 253
1.5955907 0.036766823 0.19596592 249
1.6075046 0.036759894 -0.19742836 100
1.7497333 0.039707642 0.27720189 236
1.7887053 0.040592056 -0.15653172 216
1.856768 0.041812424 0.36101064 100
1.8110621 0.040466081 -0.094937436 243
1.8001937 0.039909769 0.41570953 100
1.6673428 0.036673371 -0.029110614 253
1.7033854 0.034788605 0.029738901 250
1.4716784 0.029799458 0.077143207 248
1.7390118 0.03460535 0.15217392 253
1.6215106 0.031700946 0.19913453 246
1.5917454 0.030841129 -0.19547844 100
1.7814555 0.03451689 0.28220782 236
1.8127403 0.034806572 -0.15862344 187
1.8765316 0.035703816 0.3648268 228
1.8231736 0.034370299 -0.095565468 243
1.8412384 0.034389406 0.42515749 100
1.6634564 0.031068914 -0.029040804 253
1.7074902 0.029208528 0.029808709 251
1.4717734 0.024662467 0.077143207 248
1.741114 0.028567908 0.15234824 248
1.6275613 0.026420632 0.19986574 249
1.5640512 0.025116624 -0.1920661 100
1.7776148 0.028235866 0.28158206 236
1.8048822 0.02835305 -0.1579262 154
1.8923438 0.029726991 0.36787975 240
1.8432477 0.02863485 -0.096612185 243
1.7945781 0.027564645 0.41435984 204
1.6875485 0.025626091 -0.029459663 253
1.7435728 0.023737641 0.030436996 246
1.483833 0.01968343 0.077771239 245
1.7511605 0.022923928 0.1532198 241
1.6216888 0.020662915 0.19913453 238
1.603828 0.020155393 -0.19694087 100
1.8191824 0.022545092 0.28815234 222
1.7810595 0.022072636 -0.15583447 137
1.8688787 0.022833876 0.36330032 228
1.8593135 0.022392469 -0.097449563 239
1.8063549 0.021440234 0.41705924 100
1.6516356 0.019314744 -0.028831376 244
1.71965 0.017408747 0.030018138 246
1.4798983 0.014465036 0.0775619 243
1.7751373 0.017040974 0.15531152 241
1.6455711 0.015221951 0.20205939 235
1.6197686 0.014701332 -0.19889079 100
1.8152993 0.016159171 0.28752658 223
1.777141 0.015819499 -0.15548584 136
1.890542 0.016498085 0.36749816 235
1.889338 0.016158724 -0.099019639 234
1.763548 0.014775094 0.40716141 100
1.7036834 0.013975379 -0.029738901 247
1.7316982 0.011485056 0.030227568 246
1.8044958 0.01165293 -0.41660935 1
1.4879287 0.0093496498 0.077980585 245
1.7712013 0.01081967 0.15496291 241
1.6456143 0.0094788726 0.20205939 231
1.586064 0.0088582896 -0.19474722 100
1.8094187 0.0097899493 0.28658798 225
1.7612466 0.0095293121 -0.15409136 128
1.8395441 0.00963277 0.35757607 237
1.8454437 0.0093407035 -0.096716851 231
1.886358 0.0092185717 0.43550524 100
1.6997223 0.0080106528 -0.029669091 244
1.7357271 0.0054539884 0.030297378 246
1.8084229 0.005365937 -0.41750914 1
1.4999357 0.0041888217 0.078608617 240
1.7831825 0.004667778 0.15600878 241
1.6515925 0.0037476239 0.2027906 200
1.5860853 0.0033214162 -0.19474722 88
1.7719097 0.0034021565 0.28064346 226
1.8190483 0.003492665 -0.15914638 100
1.8552725 0.0032384298 0.36062902 246
1.8534541 0.0029109018 -0.097135544 222
1.8259678 0.0025499314 0.42155826 225
1.7077386 0.0020867873 -0.029808709 244
1.7357355 -0.00060588605 0.030297378 246
1.738276 -0.00091015926 -0.40131268 1
1.5239084 -0.00079791667 0.079864673 235
1.7911576 -0.0015630801 0.15670602 241
1.639685 -0.0020032541 0.20132817 100
1.5721916 -0.0021951951 -0.19304106 45
1.8035167 -0.0028329596 0.28564936 226
1.8011179 -0.0028291915 -0.15757757 132
1.9180967 -0.0033477133 0.37284079 234
1.8494585 -0.0035507097 -0.096926205 221
1.7226826 -0.003607983 0.39771348 100
1.7477293 -0.0039654789 -0.030506806 244
1.844906 -0.0067619639 -0.49434438 1
1.741722 -0.006687765 0.030402092 236
1.8084164 -0.0072594867 -0.41750914 1
1.5199008 -0.0063665826 0.079655334 235
1.8369657 -0.0080153253 0.16071519 226
1.6356981 -0.0077081025 0.2008407 100
1.5959952 -0.0077995658 -0.19596592 22
1.8094237 -0.0088425828 0.28658798 225
1.8030894 -0.0091263335 -0.15775189 100
1.8689926 -0.0097861113 0.36330032 100
1.8654127 -0.010092952 -0.097763576 195
1.7733259 -0.0099042235 0.40941092 100
1.723709 -0.0099279601 -0.03008795 244
1.8835071 -0.013478326 -0.50469714 1
1.7516862 -0.012840761 0.030576617 241
1.7460221 -0.013103994 -0.40311229 1
1.5238637 -0.011702662 0.079864673 235
1.8249726 -0.014333595 0.15966932 226
1.6416162 -0.013466557 0.20157191 100
1.6574939 -0.013886114 -0.20352182 8
1.8133296 -0.015508178 0.28721371 225
1.7691772 -0.015130572 -0.1547886 129
1.9278424 -0.016824026 0.37474889 100
1.8853379 -0.016782174 -0.0988103 100
1.8375863 -0.01667786 0.42425767 99
1.7356614 -0.01605575 -0.030297378 231
1.8525407 -0.019723836 -0.49641496 1
1.7456319 -0.018890291 0.0304719 236
1.8083216 -0.019884335 -0.41750914 1
1.5318021 -0.017111106 0.080283366 235
1.7990119 -0.02041002 0.15740328 204
1.647514 -0.019266421 0.20230313 100
1.8053634 -0.021742631 0.28596222 224
1.7770826 -0.021402035 -0.15548584 100
1.9042146 -0.023265528 0.37016946 100
1.8553113 -0.022991892 -0.097240217 100
1.7888023 -0.022479935 0.41301015 39
1.7455924 -0.022241626 -0.0304719 234
1.9335903 -0.027337309 -0.51815575 1
1.7575524 -0.02515528 0.030681333 236
1.7731675 -0.025688315 -0.40941092 1
1.5437154 -0.02263367 0.080911398 235
1.67055 -0.024493296 -0.32475692 2
1.8288124 -0.027132967 0.16001794 199
1.6355276 -0.024836356 0.2008407 100
1.7914507 -0.027829614 0.28377217 197
1.8188322 -0.028254975 -0.15914638 100
1.8727137 -0.029418934 0.36406359 100
1.897157 -0.030134123 -0.099438325 100
1.8315797 -0.029412255 0.42290798 13
1.7595003 -0.028561948 -0.030716237 232
1.8755366 -0.033065058 -0.5026266 1
1.7734489 -0.031574905 0.030960569 236
1.8159324 -0.032648336 -0.41930875 1
1.5596023 -0.028312111 0.081748769 226
1.8008177 -0.033005401 0.15757757 100
1.6886581 -0.031244561 -0.26750296 2
1.6433699 -0.030693537 0.20181565 100
1.8288679 -0.034796745 0.28971666 100
1.8027862 -0.034300502 -0.15775189 100
1.8765253 -0.036031131 0.3648268 100
1.8511118 -0.035866357 -0.097030871 100
1.7513926 -0.034545831 -0.030576617 218
1.8715469 -0.039530106 -0.50159132 1
1.7813247 -0.037935514 0.031100187 236
1.7807381 -0.038233958 -0.41121054 1
1.5814588 -0.034231409 0.082900167 224
1.6821151 -0.03641016 -0.32704663 2
1.8345541 -0.040030114 0.16054088 100
1.7122376 -0.037660141 -0.2712574 2
1.6372991 -0.036297791 0.20108443 100
1.6035545 -0.035829708 -0.19694087 4
1.7971373 -0.040468931 0.28471076 185
1.7926961 -0.040368922 -0.15688033 74
1.8312448 -0.041556757 0.3560496 100
1.8330046 -0.04191678 -0.096088827 100
1.850812 -0.04264719 0.427407 2
1.7792495 -0.041308925 -0.031065283 206
1.9061604 -0.046918441 -0.51090884 1
1.7831806 -0.044202819 0.031135093 235
1.8234528 -0.045519568 -0.42110837 1
1.5673532 -0.039400179 0.082167462 223
1.6976788 -0.042676307 -0.33009958 2
1.8144858 -0.045929492 0.15879777 100
1.7278936 -0.04403938 -0.27376035 2
1.6371623 -0.042012811 0.20108443 100
1.5895286 -0.041068044 -0.19523472 4
1.8147575 -0.047204144 0.28752658 219
1.7646602 -0.045901053 -0.15443997 45
1.9429559 -0.050878093 0.37780184 100
1.8607992 -0.049051736 -0.097554229 100
1.8389635 -0.048797317 0.42470759 2
1.7950865 -0.047946554 -0.031344522 182
1.8326036 -0.051509354 -0.49123856 1
1.8010055 -0.050935805 0.031449236 224
1.815491 -0.051662598 -0.41930875 1
1.5133022 -0.043327689 0.079341315 129
1.6700451 -0.047815431 -0.32475692 2
1.8163059 -0.052320316 0.15897207 100
1.7000856 -0.04926946 -0.26938018 2
1.6409742 -0.047843017 0.20157191 100
1.6012809 -0.046965469 -0.19669713 4
1.8264288 -0.05388809 0.2894038 100
1.8521163 -0.054645989 -0.16210969 16
1.8760452 -0.05567972 0.3648268 100
1.8725948 -0.055904433 -0.098182261 100
1.8270947 -0.054865245 0.42200816 2
1.8009044 -0.054393392 -0.031449236 170
1.7919317 -0.054435425 0.48036817 1
1.9057863 -0.060224701 -0.51090884 1
1.8228023 -0.057920784 0.03183319 226
1.7802401 -0.056879364 -0.41121054 1
1.5770211 -0.050661959 0.08269082 144
1.6894904 -0.054275051 -0.32857311 2
1.8459823 -0.059624888 0.16158675 100
1.7314926 -0.056229416 -0.27438608 2
1.6606374 -0.054218568 0.20400929 100
1.5653949 -0.051382478 -0.19230984 2
1.782795 -0.0588299 0.28252068 197
1.8300098 -0.060387932 -0.16019225 8
1.8699528 -0.062032729 0.36368197 60
1.8644036 -0.062174395 -0.097763576 100
1.8074156 -0.060589761 0.41750914 2
1.776721 -0.05987123 -0.031030379 142
1.7762849 -0.06016691 0.47622705 1
1.9055644 -0.066876777 -0.51090884 1
1.8105981 -0.063860282 0.031623758 226
1.7722406 -0.062817097 -0.40941092 1
1.5808268 -0.056308683 0.082900167 139
1.6618226 -0.059193738 -0.32323048 2
1.8198785 -0.065141685 0.1593207 100
1.735234 -0.062415127 -0.27501184 2
1.6564705 -0.059871539 0.20352182 100
1.6088492 -0.058431476 -0.1976721 2
1.7885008 -0.065268777 0.28345928 191
1.8417343 -0.067211457 -0.16123812 5
1.9128875 -0.070142396 0.37207755 22
1.8721589 -0.068976142 -0.098182261 100
1.7838243 -0.066033378 0.41211033 2
1.7765011 -0.066072777 -0.031030379 135
1.76062 -0.065789834 0.47208595 1
1.8512677 -0.071442127 -0.49641496 1
1.8303463 -0.07095468 0.031972811 222
1.8031669 -0.070216231 -0.41660935 1
1.5866077 -0.062060647 0.083214179 134
1.6616058 -0.064994223 -0.32323048 2
1.8196399 -0.071493857 0.1593207 100
1.7586917 -0.069406606 -0.27876624 2
1.6701362 -0.066203728 0.205228 52
1.5768991 -0.062783487 -0.19377227 2
1.8237904 -0.072932169 0.28909093 100
1.8116264 -0.072445743 -0.15862344 4
1.8988993 -0.076267675 0.36940622 7
1.8679154 -0.07534977 -0.097972922 100
1.8225257 -0.073837407 0.42110837 2
1.7722634 -0.072110921 -0.030960569 134
1.7835425 -0.072881661 0.47829759 1
1.8703086 -0.078716159 -0.50159132 1
1.840077 -0.077765517 0.032147333 200
1.8145926 -0.077005766 -0.41930875 1
1.5644314 -0.066663235 0.082062788 129
1.6809837 -0.071629733 -0.32704663 2
1.8173889 -0.077759974 0.15914638 100
1.7071264 -0.073340707 -0.27063167 2
1.6758447 -0.072289839 0.2059592 20
1.5647709 -0.067772135 -0.19230984 2
1.8254983 -0.079383768 0.2894038 100
1.8531632 -0.080586806 -0.16228399 3
1.9280423 -0.084180139 0.3751305 5
1.8816084 -0.082481824 -0.09870562 100
1.7988945 -0.079170577 0.41570953 1
1.7959739 -0.079356097 -0.031379428 133
1.7716975 -0.078593254 0.47519177 1
1.8314254 -0.083484843 -0.49123856 1
1.8417919 -0.08427953 0.032182239 100
1.8065261 -0.082981728 -0.41750914 1
1.5641892 -0.072123706 0.082062788 126
1.6297328 -0.075145878 -0.31712458 1
1.8031744 -0.083458543 0.1579262 100
1.7384318 -0.080766052 -0.27563757 2
1.6517869 -0.077029511 0.20303436 7
1.5803882 -0.07397633 -0.19425975 2
1.7344429 -0.081490867 0.27501184 100
1.8090864 -0.084997907 -0.15844914 4
1.8767487 -0.088505223 0.36520842 2
1.8872942 -0.08933267 -0.099019639 53
1.8025004 -0.085634366 0.41660935 1
1.7737143 -0.084577046 -0.030995475 131
1.8100052 -0.08662416 0.48554453 1
1.9430356 -0.095370233 -0.52126157 1
1.8135247 -0.08933071 0.03169357 100
1.7906544 -0.088517465 -0.41390994 1
1.5320241 -0.075732589 0.080388032 122
1.6412257 -0.081417896 -0.31941426 1
1.7929225 -0.089256965 0.15705465 100
1.7341936 -0.086636692 -0.27501184 2
1.681247 -0.084285758 0.20669043 4
1.6197721 -0.081487261 -0.19913453 2
1.8032141 -0.090715833 0.28596222 100
1.8764337 -0.094727688 -0.16437572 3
1.8999573 -0.096247688 0.36978784 2
1.8590453 -0.09450046 -0.097554229 27
1.8411146 -0.093911171 0.42560738 1
1.7814125 -0.090865895 -0.031135093 129
1.7479696 -0.089465924 0.4689801 1
